# .PCD v0.7 - Point Cloud Data file format
VERSION 0.7
FIELDS x y z rgb
SIZE 4 4 4 4
TYPE F F F U
COUNT 1 1 1 1
WIDTH 1104
HEIGHT 1
VIEWPOINT 0 0 0 1 0 0 0
POINTS 1104
DATA ascii
-46.333702 22.762638 -26.903152 4278255538
-46.240093 22.768414 -26.831081 4278255538
-46.248253 22.678026 -26.854382 4278255538
-46.154652 22.683811 -26.78231 4278255538
-46.1628 22.593409 -26.805607 4278255538
-46.069202 22.599203 -26.73354 4278255538
-46.077343 22.508785 -26.756832 4278255538
-45.983749 22.514587 -26.684765 4278255538
-46.085484 22.418344 -26.780128 4278255538
-45.991875 22.424154 -26.70805 4278255538
-45.898289 22.429964 -26.635986 4278255538
-45.906403 22.339518 -26.659264 4278255538
-45.81282 22.345337 -26.587204 4278255538
-45.820923 22.254875 -26.610477 4278255538
-45.727345 22.260702 -26.538418 4278255538
-45.735435 22.170225 -26.561684 4278255538
-45.641865 22.17606 -26.489628 4278255538
-45.649944 22.085569 -26.51289 4278255538
-45.556377 22.091412 -26.440834 4278255538
-45.564445 22.000906 -26.464088 4278255538
-45.470882 22.006758 -26.392036 4278255538
-45.478939 21.916237 -26.415287 4278255538
-45.38538 21.922096 -26.343235 4278255538
-45.393429 21.831562 -26.366478 4278255538
-45.299873 21.837429 -26.29443 4278255538
-45.206337 21.843298 -26.222393 4278255538
-45.307911 21.74688 -26.317669 4278255538
-45.214359 21.752756 -26.245621 4278255538
-45.120827 21.758633 -26.173588 4278255538
-45.222385 21.662191 -26.268852 4278255538
-45.128838 21.668076 -26.196808 4278255538
-45.035313 21.673962 -26.124775 4278255538
-45.136852 21.577496 -26.220036 4278255538
-45.043312 21.583389 -26.147991 4278255538
-44.949791 21.589283 -26.075962 4278255538
-45.051315 21.492794 -26.171215 4278255538
-44.957779 21.498697 -26.099171 4278255538
-44.864262 21.504599 -26.027145 4278255538
-44.872238 21.413998 -26.050346 4278255538
-44.778725 21.419907 -25.978321 4278255538
-44.786694 21.32929 -26.001522 4278255538
-44.693184 21.335209 -25.929497 4278255538
-44.701141 21.244579 -25.95269 4278255538
-44.607635 21.250505 -25.880669 4278255538
-44.615582 21.159861 -25.903854 4278255538
-44.522083 21.165794 -25.831837 4278255538
-44.530014 21.075134 -25.855015 4278255538
-44.43652 21.081078 -25.782997 4278255538
-44.343044 21.087021 -25.710995 4278255538
-44.444443 20.990402 -25.806175 4278255538
-44.350952 20.996355 -25.734158 4278255538
-44.358864 20.905664 -25.757328 4278255538
-44.265377 20.911625 -25.685314 4278255538
-44.171913 20.917585 -25.613316 4278255538
-44.273277 20.820919 -25.708477 4278255538
-44.179798 20.826889 -25.636467 4278255538
-44.187687 20.736168 -25.659626 4278255538
-44.094212 20.742146 -25.587616 4278255538
-44.000755 20.748123 -25.515617 4278255538
-44.102089 20.651411 -25.610767 4278255538
-44.008617 20.657396 -25.538761 4278255538
-43.915165 20.663382 -25.466766 4278255538
-44.016483 20.566647 -25.561905 4278255538
-43.923016 20.572641 -25.489899 4278255538
-43.829571 20.578634 -25.417908 4278255538
-43.93087 20.481876 -25.513042 4278255538
-43.83741 20.487879 -25.44104 4278255538
-43.743965 20.493881 -25.369049 4278255538
-43.845253 20.397099 -25.464172 4278255538
-43.751797 20.403111 -25.39217 4278255538
-43.65836 20.409121 -25.320183 4278255538
-43.666176 20.318335 -25.3433 4278255538
-43.572742 20.324354 -25.271317 4278255538
-43.580551 20.233553 -25.294426 4278255538
-43.487122 20.239582 -25.222443 4278255538
-43.494915 20.148766 -25.245552 4278255538
-43.401493 20.154802 -25.173569 4278255538
-43.409275 20.063971 -25.196671 4278255538
-43.315857 20.070015 -25.124691 4278255538
-43.323631 19.97917 -25.147785 4278255538
-43.230217 19.985224 -25.075806 4278255538
-43.23798 19.894363 -25.098896 4278255538
-43.144569 19.900425 -25.02692 4278255538
-43.152317 19.809549 -25.050003 4278255538
-43.058914 19.815619 -24.978027 4278255538
-43.066654 19.724728 -25.001106 4278255538
-42.973255 19.730806 -24.929134 4278255538
-42.879871 19.736883 -24.857178 4278255538
-42.98098 19.639902 -24.952206 4278255538
-42.887585 19.645988 -24.880238 4278255538
-42.794209 19.652075 -24.808281 4278255538
-42.895302 19.555069 -24.903301 4278255538
-42.80191 19.561163 -24.831337 4278255538
-42.809616 19.470228 -24.854397 4278255538
-42.716232 19.476332 -24.782429 4278255538
-42.723927 19.385382 -24.805485 4278255538
-42.630543 19.391495 -24.733521 4278255538
-42.638226 19.300529 -24.756569 4278255538
-42.544849 19.30665 -24.684608 4278255538
-42.451492 19.312769 -24.612659 4278255538
-42.552521 19.21567 -24.707649 4278255538
-42.459148 19.2218 -24.635693 4278255538
-42.365799 19.227928 -24.563744 4278255538
-42.373444 19.136942 -24.586769 4278255538
-42.280094 19.143078 -24.514828 4278255538
-42.381092 19.045933 -24.609802 4278255538
-42.287731 19.052078 -24.537846 4278255538
-42.194386 19.058224 -24.465904 4278255538
-42.295368 18.961054 -24.560871 4278255538
-42.202011 18.967209 -24.488918 4278255538
-42.108673 18.973362 -24.416981 4278255538
-42.209637 18.876167 -24.51194 4278255538
-42.116283 18.882332 -24.439987 4278255538
-42.123898 18.791277 -24.463001 4278255538
-42.030552 18.797447 -24.391052 4278255538
-41.937222 18.803619 -24.319115 4278255538
-42.038155 18.706379 -24.414059 4278255538
-41.944813 18.712559 -24.342113 4278255538
-41.851486 18.718737 -24.27018 4278255538
-41.859066 18.627663 -24.293171 4278255538
-41.765747 18.63385 -24.221237 4278255538
-41.773312 18.542759 -24.244225 4278255538
-41.679996 18.548956 -24.172295 4278255538
-41.687553 18.45785 -24.195274 4278255538
-41.594242 18.464054 -24.123344 4278255538
-41.601788 18.372934 -24.14632 4278255538
-41.508484 18.379148 -24.074394 4278255538
-41.516014 18.288013 -24.097363 4278255538
-41.422714 18.294233 -24.025436 4278255538
-41.430237 18.203085 -24.048401 4278255538
-41.336941 18.209314 -23.976479 4278255538
-41.344452 18.118149 -23.999435 4278255538
-41.25116 18.124388 -23.927517 4278255538
-41.157887 18.130625 -23.85561 4278255538
-41.258659 18.033207 -23.950466 4278255538
-41.165375 18.039455 -23.878548 4278255538
-41.172859 17.948259 -23.901493 4278255538
-41.079578 17.954515 -23.829578 4278255538
-41.087055 17.863304 -23.852516 4278255538
-40.993778 17.86957 -23.780602 4278255538
-40.90052 17.875832 -23.708706 4278255538
-41.001244 17.778343 -23.803535 4278255538
-40.907974 17.784616 -23.731625 4278255538
-40.81472 17.790888 -23.659729 4278255538
-40.915424 17.693377 -23.754551 4278255538
-40.822159 17.699657 -23.682644 4278255538
-40.728912 17.705936 -23.610748 4278255538
-40.73634 17.614693 -23.633656 4278255538
-40.643097 17.620979 -23.561764 4278255538
-40.650513 17.52972 -23.584667 4278255538
-40.557274 17.536016 -23.512775 4278255538
-40.657932 17.438435 -23.607578 4278255538
-40.564678 17.44474 -23.535675 4278255538
-40.471447 17.451046 -23.463787 4278255538
-40.47884 17.359756 -23.486679 4278255538
-40.385612 17.36607 -23.414791 4278255538
-40.392994 17.274765 -23.437675 4278255538
-40.29977 17.281088 -23.365791 4278255538
-40.30714 17.189766 -23.388672 4278255538
-40.213921 17.196098 -23.316792 4278255538
-40.221283 17.104763 -23.339664 4278255538
-40.128067 17.111101 -23.267784 4278255538
-40.135418 17.019751 -23.290653 4278255538
-40.042206 17.0261 -23.218773 4278255538
-40.049545 16.934734 -23.241638 4278255538
-39.956337 16.94109 -23.169762 4278255538
-39.963665 16.84971 -23.192619 4278255538
-39.870464 16.856075 -23.120743 4278255538
-39.777283 16.862438 -23.048882 4278255538
-39.877781 16.764679 -23.143593 4278255538
-39.784584 16.771053 -23.07172 4278255538
-39.691406 16.777426 -22.999863 4278255538
-39.791885 16.679642 -23.094566 4278255538
-39.698696 16.686024 -23.022697 4278255538
-39.70599 16.594599 -23.045536 4278255538
-39.612804 16.60099 -22.973667 4278255538
-39.519634 16.60738 -22.901814 4278255538
-39.526901 16.515947 -22.924637 4278255538
-39.433739 16.522346 -22.852783 4278255538
-39.440994 16.430901 -22.875599 4278255538
-39.347836 16.437307 -22.803749 4278255538
-39.448254 16.33943 -22.898422 4278255538
-39.35508 16.345846 -22.826561 4278255538
-39.362328 16.25436 -22.849377 4278255538
-39.269161 16.260784 -22.777515 4278255538
-39.176014 16.267208 -22.705669 4278255538
-39.276398 16.169283 -22.800327 4278255538
-39.183235 16.175716 -22.72847 4278255538
-39.19046 16.084202 -22.751274 4278255538
-39.097301 16.090643 -22.679417 4278255538
-39.104515 15.999114 -22.702217 4278255538
-39.01136 16.005562 -22.630363 4278255538
-38.918228 16.012012 -22.558521 4278255538
-39.018562 15.914018 -22.653156 4278255538
-38.925415 15.920476 -22.581306 4278255538
-38.832287 15.926934 -22.509468 4278255538
-38.839462 15.835383 -22.532242 4278255538
-38.746338 15.841849 -22.460407 4278255538
-38.753502 15.750283 -22.483177 4278255538
-38.660381 15.756759 -22.411343 4278255538
-38.667538 15.665177 -22.434105 4278255538
-38.574421 15.67166 -22.362274 4278255538
-38.481323 15.678142 -22.290455 4278255538
-38.581562 15.580064 -22.385033 4278255538
-38.488453 15.586556 -22.313202 4278255538
-38.395363 15.593047 -22.241386 4278255538
-38.495583 15.494945 -22.335957 4278255538
-38.402477 15.501445 -22.264126 4278255538
-38.309391 15.507943 -22.192314 4278255538
-38.409599 15.409818 -22.286873 4278255538
-38.316498 15.416327 -22.21505 4278255538
-38.223415 15.422835 -22.143238 4278255538
-38.323605 15.324685 -22.237789 4278255538
-38.230511 15.331203 -22.165966 4278255538
-38.237606 15.239547 -22.188702 4278255538
-38.144516 15.246072 -22.116879 4278255538
-38.051445 15.252597 -22.045071 4278255538
-38.1516 15.154401 -22.13961 4278255538
-38.058514 15.160935 -22.067787 4278255538
-37.965446 15.16747 -21.995983 4278255538
-37.972507 15.075791 -22.018696 4278255538
-37.879444 15.082334 -21.946892 4278255538
-37.886494 14.990642 -21.969597 4278255538
-37.793438 14.997193 -21.897797 4278255538
-37.800472 14.905486 -21.920494 4278255538
-37.70742 14.912045 -21.848694 4278255538
-37.714447 14.820323 -21.871391 4278255538
-37.621399 14.82689 -21.799591 4278255538
-37.628414 14.735152 -21.822281 4278255538
-37.53537 14.741729 -21.750484 4278255538
-37.542374 14.649978 -21.773167 4278255538
-37.549377 14.5582 -21.795856 4278255538
-37.456326 14.564794 -21.724052 4278255538
-37.463318 14.473002 -21.746735 4278255538
-37.377254 14.387797 -21.697609 4278255538
-37.384239 14.295964 -21.720291 4278255538
-37.291183 14.302587 -21.648479 4278255538
-37.298157 14.21074 -21.671154 4278255538
-37.30513 14.118867 -21.69384 4278255538
-37.212067 14.125506 -21.622017 4278255538
-37.219028 14.03362 -21.644695 4278255538
-37.225994 13.941707 -21.667377 4278255538
-37.132923 13.948365 -21.595547 4278255538
-37.139877 13.856439 -21.618225 4278255538
-37.04681 13.863105 -21.546394 4278255538
-37.053753 13.771163 -21.569065 4278255538
-36.96069 13.777839 -21.497234 4278255538
-36.967621 13.68588 -21.519901 4278255538
-36.874561 13.692565 -21.448074 4278255538
-36.881481 13.600591 -21.470737 4278255538
-36.788425 13.607284 -21.398911 4278255538
-36.795334 13.515296 -21.421566 4278255538
-36.702286 13.521998 -21.349743 4278255538
-36.250977 13.371552 -21.036022 4278255538
-36.350811 13.272824 -21.130413 4278255538
-36.257812 13.27955 -21.058624 4278255538
-36.264648 13.18752 -21.081234 4278255538
-36.171654 13.194253 -21.009445 4278255538
-36.078682 13.200986 -20.937675 4278255538
-36.178478 13.10221 -21.032047 4278255538
-36.085491 13.108951 -20.960262 4278255538
-36.092304 13.016892 -20.982861 4278255538
-35.999321 13.023643 -20.911079 4278255538
-36.006123 12.931569 -20.933666 4278255538
-35.913143 12.938327 -20.861889 4278255538
-35.919933 12.846238 -20.884472 4278255538
-35.826962 12.853005 -20.812695 4278255538
-35.83374 12.760901 -20.835274 4278255538
-35.740772 12.767678 -20.763496 4278255538
-35.747536 12.675559 -20.786068 4278255538
-35.754307 12.583413 -20.808647 4278255538
-35.661331 12.590209 -20.736862 4278255538
-35.668087 12.498048 -20.759434 4278255538
-35.674847 12.405864 -20.782013 4278255538
-35.681606 12.313655 -20.8046 4278255538
-35.588608 12.320477 -20.732792 4278255538
-35.595356 12.228251 -20.755371 4278255538
-35.602108 12.136003 -20.777958 4278255538
-35.608864 12.043727 -20.800549 4278255538
-35.515842 12.050578 -20.728718 4278255538
-35.522583 11.958289 -20.751305 4278255538
-35.529327 11.865973 -20.773899 4278255538
-35.536072 11.773633 -20.796497 4278255538
-35.54282 11.681268 -20.819103 4278255538
-35.449764 11.688157 -20.747238 4278255538
-35.456501 11.595777 -20.769836 4278255538
-35.463238 11.503371 -20.792442 4278255538
-35.469978 11.410939 -20.815052 4278255538
-35.476719 11.318482 -20.837669 4278255538
-35.383629 11.325412 -20.765774 4278255538
-35.390358 11.23294 -20.788383 4278255538
-35.397091 11.140443 -20.811001 4278255538
-35.403824 11.047921 -20.833626 4278255538
-35.410557 10.955375 -20.856255 4278255538
-35.317432 10.962342 -20.784325 4278255538
-35.324158 10.869779 -20.806946 4278255538
-35.330883 10.777192 -20.829578 4278255538
-35.337608 10.684579 -20.852215 4278255538
-35.344337 10.591941 -20.874855 4278255538
-35.35107 10.499278 -20.897507 4278255538
-35.357803 10.40659 -20.920162 4278255538
-35.264614 10.413615 -20.848171 4278255538
-35.271336 10.320911 -20.870819 4278255538
-35.278061 10.228183 -20.893475 4278255538
-35.284782 10.135428 -20.916138 4278255538
-35.291512 10.042649 -20.938805 4278255538
-35.298241 9.9498444 -20.961479 4278255538
-35.205002 9.9569187 -20.889442 4278255538
-35.21172 9.8640985 -20.912109 4278255538
-35.218441 9.7712536 -20.934784 4278255538
-35.225163 9.6783829 -20.957466 4278255538
-35.231884 9.5854864 -20.980152 4278255538
-35.238609 9.4925652 -21.002842 4278255538
-35.145325 9.4996881 -20.930763 4278255538
-35.152035 9.4067516 -20.953449 4278255538
-35.158752 9.3137894 -20.976143 4278255538
-35.165466 9.2208023 -20.99884 4278255538
-35.172188 9.1277895 -21.021545 4278255538
-35.078865 9.1349516 -20.949429 4278255538
-35.085571 9.0419235 -20.97213 4278255538
-35.092281 8.9488697 -20.994835 4278255538
-35.098991 8.8557911 -21.017548 4278255538
-35.00565 8.8629827 -20.945408 4278255538
-35.012348 8.7698879 -20.968117 4278255538
-35.019051 8.6767683 -20.990826 4278255538
-35.025753 8.5836229 -21.013546 4278255538
-34.932388 8.5908432 -20.941383 4278255538
-34.939079 8.4976826 -20.964096 4278255538
-34.945774 8.4044971 -20.986816 4278255538
-34.952469 8.311285 -21.009541 4278255538
-34.959164 8.2180481 -21.032272 4278255538
-34.865765 8.2253084 -20.960079 4278255538
-34.872448 8.1320553 -20.982803 4278255538
-34.879135 8.0387783 -21.005535 4278255538
-34.792404 7.9527631 -20.956055 4278255538
-34.79908 7.8594441 -20.978786 4278255538
-34.805759 7.7660995 -21.001526 4278255538
-34.71233 7.7734075 -20.929298 4278255538
-34.718998 7.6800475 -20.95203 4278255538
-34.725666 7.5866628 -20.97477 4278255538
-34.632229 7.5939889 -20.902534 4278255538
-34.638885 7.5005889 -20.925266 4278255538
-34.645546 7.4071631 -20.948006 4278255538
-34.552097 7.4145083 -20.875759 4278255538
-34.558746 7.3210664 -20.898491 4278255538
-34.565395 7.2275996 -20.92123 4278255538
-34.471939 7.2349639 -20.848972 4278255538
-34.478577 7.1414819 -20.871704 4278255538
-34.485218 7.0479741 -20.894444 4278255538
-34.39838 6.9618335 -20.844913 4278255538
-34.40501 6.8682847 -20.867653 4278255538
-34.318157 6.7821231 -20.818108 4278255538
-34.324776 6.6885324 -20.840847 4278255538
-34.331398 6.5949168 -20.863594 4278255538
-34.237904 6.6023488 -20.791294 4278255538
-34.244514 6.508718 -20.814037 4278255538
-34.251125 6.4150605 -20.836784 4278255538
-34.157623 6.4225116 -20.764473 4278255538
-34.164223 6.3288398 -20.787212 4278255538
-34.170826 6.2351413 -20.809959 4278255538
-34.177429 6.141418 -20.832714 4278255538
-34.083904 6.1488976 -20.760384 4278255538
-34.0905 6.0551591 -20.783131 4278255538
-34.097092 5.9613948 -20.805882 4278255538
-34.103687 5.8676047 -20.828644 4278255538
-34.110287 5.773788 -20.85141 4278255538
-34.016727 5.7813077 -20.779041 4278255538
-34.023312 5.6874766 -20.801804 4278255538
-34.0299 5.5936189 -20.82457 4278255538
-34.036491 5.4997363 -20.847343 4278255538
-34.043079 5.405828 -20.870121 4278255538
-33.949486 5.4133868 -20.797722 4278255538
-33.956066 5.3194623 -20.820492 4278255538
-33.962646 5.225513 -20.843273 4278255538
-33.969231 5.131537 -20.866058 4278255538
-33.875614 5.1391253 -20.793636 4278255538
-33.882183 5.045135 -20.816414 4278255538
-33.88876 4.951118 -20.839199 4278255538
-33.895332 4.8570752 -20.861992 4278255538
-33.801693 4.8646932 -20.789547 4278255538
-33.808258 4.7706351 -20.812332 4278255538
-33.814823 4.6765504 -20.835125 4278255538
-33.721176 4.6841874 -20.762672 4278255538
-33.72773 4.5900884 -20.785458 4278255538
-33.734283 4.4959626 -20.80825 4278255538
-33.647171 4.4094777 -20.758572 4278255538
-33.653717 4.3153119 -20.781364 4278255538
-33.660263 4.2211194 -20.804165 4278255538
-33.566586 4.2288041 -20.731678 4278255538
-33.57312 4.1345963 -20.754471 4278255538
-33.579659 4.0403628 -20.777267 4278255538
-33.485973 4.0480676 -20.704773 4278255538
-33.492496 3.9538181 -20.727566 4278255538
-33.499023 3.8595426 -20.750366 4278255538
-33.505554 3.7652414 -20.77317 4278255538
-33.411846 3.7729757 -20.700649 4278255538
-33.418362 3.6786592 -20.72345 4278255538
-33.424881 3.584317 -20.746258 4278255538
-33.331165 3.5920703 -20.673729 4278255538
-33.337673 3.4977119 -20.696529 4278255538
-33.344181 3.4033277 -20.719334 4278255538
-33.350693 3.3089178 -20.742149 4278255538
-33.256954 3.3167007 -20.669594 4278255538
-33.263454 3.2222755 -20.692402 4278255538
-33.269955 3.1278236 -20.715218 4278255538
-33.176205 3.1356256 -20.642654 4278255538
-33.182697 3.0411584 -20.665462 4278255538
-33.189186 2.9466655 -20.688274 4278255538
-33.195679 2.8521469 -20.711094 4278255538
-33.10191 2.8599784 -20.638512 4278255538
-33.108391 2.765444 -20.661324 4278255538
-33.114876 2.6708834 -20.684143 4278255538
-33.121361 2.5762966 -20.70697 4278255538
-33.027569 2.5841582 -20.634365 4278255538
-33.034039 2.4895561 -20.657185 4278255538
-33.040516 2.3949277 -20.680012 4278255538
-33.046993 2.3002732 -20.702843 4278255538
-33.053471 2.2055929 -20.725681 4278255538
-32.959644 2.213495 -20.653042 4278255538
-33.059952 2.1108868 -20.748528 4278255538
-32.96611 2.118799 -20.675877 4278255538
-32.97258 2.0240767 -20.698715 4278255538
-32.97905 1.9293286 -20.721561 4278255538
-32.985519 1.8345543 -20.744411 4278255538
-32.991997 1.7397543 -20.767273 4278255538
-32.99847 1.6449276 -20.790134 4278255538
-32.904579 1.6528908 -20.717434 4278255538
-32.911045 1.5580488 -20.740295 4278255538
-32.917511 1.4631807 -20.763161 4278255538
-32.923977 1.3682863 -20.78603 4278255538
-32.930447 1.2733661 -20.808907 4278255538
-32.836521 1.2813693 -20.736172 4278255538
-32.936916 1.1784192 -20.831791 4278255538
-32.842976 1.186433 -20.759045 4278255538
-32.849438 1.0914708 -20.781921 4278255538
-32.855896 0.99648255 -20.804806 4278255538
-32.862362 0.90146798 -20.827698 4278255538
-32.868824 0.80642718 -20.850594 4278255538
-32.774849 0.81448144 -20.777813 4278255538
-32.781303 0.7194249 -20.800701 4278255538
-32.787758 0.62434262 -20.823601 4278255538
-32.794212 0.52923363 -20.846504 4278255538
-32.800671 0.43409839 -20.869415 4278255538
-32.706657 0.44219318 -20.796597 4278255538
-32.713104 0.34704223 -20.8195 4278255538
-32.719555 0.25186506 -20.842411 4278255538
-32.726006 0.15666214 -20.865326 4278255538
-32.631969 0.16478696 -20.792488 4278255538
-32.638409 0.069567837 -20.815399 4278255538
-32.644848 -0.025677528 -20.838314 4278255538
-32.651291 -0.12094911 -20.861237 4278255538
-32.557232 -0.11279424 -20.788376 4278255538
-32.563663 -0.20808157 -20.811295 4278255538
-32.570095 -0.30339512 -20.834217 4278255538
-32.482449 -0.39054999 -20.78426 4278255538
-32.488873 -0.4859055 -20.807186 4278255538
-32.495293 -0.58128768 -20.830116 4278255538
-32.401207 -0.57308322 -20.757221 4278255538
-32.407619 -0.66848069 -20.780144 4278255538
-32.414032 -0.76390487 -20.803074 4278255538
-32.326336 -0.85112029 -20.753094 4278255538
-32.332741 -0.94658691 -20.776024 4278255538
-32.339146 -1.0420793 -20.798962 4278255538
-32.251419 -1.1293334 -20.748966 4278255538
-32.257816 -1.2248679 -20.771904 4278255538
-32.264214 -1.3204292 -20.794846 4278255538
-32.270611 -1.4160167 -20.817799 4278255538
-32.277012 -1.5116307 -20.840755 4278255538
-32.182842 -1.5033249 -20.76778 4278255538
-32.283413 -1.6072711 -20.863716 4278255538
-32.189232 -1.5989546 -20.79073 4278255538
-32.289818 -1.702938 -20.886684 4278255538
-32.195621 -1.6946107 -20.813686 4278255538
-32.202011 -1.7902933 -20.836651 4278255538
-32.208405 -1.8860024 -20.859619 4278255538
-32.214802 -1.981738 -20.882595 4278255538
-32.221199 -2.0774999 -20.905579 4278255538
-32.227596 -2.1732883 -20.928566 4278255538
-32.233997 -2.2691035 -20.951561 4278255538
-32.240402 -2.3649449 -20.974564 4278255538
-32.246803 -2.460813 -20.99757 4278255538
-32.253212 -2.5567076 -21.020584 4278255538
-32.259617 -2.6526287 -21.043606 4278255538
-32.266029 -2.7485764 -21.066631 4278255538
-32.272438 -2.8445508 -21.089664 4278255538
-32.278851 -2.9405515 -21.112705 4278255538
-32.285267 -3.0365791 -21.13575 4278255538
-32.190899 -3.0281038 -21.062592 4278255538
-32.291683 -3.132633 -21.158802 4278255538
-32.197304 -3.1241472 -21.085632 4278255538
-32.298103 -3.2287138 -21.181862 4278255538
-32.203709 -3.2202172 -21.108677 4278255538
-32.210114 -3.3163137 -21.131729 4278255538
-32.216522 -3.412437 -21.154789 4278255538
-32.222931 -3.5085866 -21.177856 4278255538
-32.229343 -3.6047633 -21.200928 4278255538
-32.235756 -3.7009664 -21.224003 4278255538
-32.242172 -3.7971961 -21.247089 4278255538
-32.248589 -3.8934526 -21.27018 4278255538
-32.255009 -3.9897358 -21.293278 4278255538
-32.261429 -4.0860457 -21.316383 4278255538
-32.166927 -4.0774541 -21.243099 4278255538
-32.267853 -4.1823821 -21.339493 4278255538
-32.173336 -4.17378 -21.266197 4278255538
-32.179749 -4.2701325 -21.289303 4278255538
-32.186161 -4.3665118 -21.312412 4278255538
-32.192574 -4.4629178 -21.335529 4278255538
-32.19899 -4.5593505 -21.358654 4278255538
-32.205406 -4.6558099 -21.381783 4278255538
-32.211826 -4.7522964 -21.404919 4278255538
-32.218246 -4.8488092 -21.428062 4278255538
-32.319294 -4.9540381 -21.524605 4278255538
-32.22467 -4.9453492 -21.451214 4278255538
-32.325733 -5.0506158 -21.547775 4278255538
-32.231094 -5.0419159 -21.474369 4278255538
-32.332172 -5.1472201 -21.57095 4278255538
-32.338615 -5.2438517 -21.594128 4278255538
-32.345058 -5.3405094 -21.617317 4278255538
-32.351505 -5.4371943 -21.640511 4278255538
-32.357952 -5.5339065 -21.663712 4278255538
-32.364403 -5.6306448 -21.686916 4278255538
-32.465607 -5.7361884 -21.783638 4278255538
-32.370853 -5.7274108 -21.710133 4278255538
-32.472073 -5.8329916 -21.806873 4278255538
-32.377304 -5.824203 -21.733349 4278255538
-32.478542 -5.929822 -21.830109 4278255538
-32.485012 -6.0266795 -21.853355 4278255538
-32.491482 -6.1235633 -21.876606 4278255538
-32.497955 -6.2204747 -21.899864 4278255538
-32.504433 -6.3174129 -21.92313 4278255538
-32.51091 -6.4143777 -21.9464 4278255538
-32.517387 -6.5113702 -21.969677 4278255538
-32.523869 -6.6083889 -21.992962 4278255538
-32.625263 -6.714324 -22.089901 4278255538
-32.530354 -6.7054353 -22.016254 4278255538
-32.631763 -6.811408 -22.113213 4278255538
-32.536839 -6.8025084 -22.039551 4278255538
-32.638264 -6.9085193 -22.136528 4278255538
-32.543324 -6.8996086 -22.062855 4278255538
-32.644764 -7.0056572 -22.159851 4278255538
-32.549812 -6.996736 -22.086163 4278255538
-32.651268 -7.1028223 -22.183178 4278255538
-32.556301 -7.0938902 -22.109478 4278255538
-32.657772 -7.2000151 -22.206512 4278255538
-32.562794 -7.1910715 -22.132801 4278255538
-32.66428 -7.2972345 -22.229855 4278255538
-32.569286 -7.28828 -22.156132 4278255538
-32.670792 -7.3944807 -22.253204 4278255538
-32.575783 -7.3855157 -22.179466 4278255538
-32.582279 -7.4827781 -22.202812 4278255538
-32.588779 -7.5800681 -22.226158 4278255538
-32.59528 -7.6773849 -22.249516 4278255538
-32.601784 -7.7747288 -22.272877 4278255538
-32.608288 -7.8721004 -22.296246 4278255538
-32.614796 -7.9694986 -22.319618 4278255538
-32.621304 -8.0669241 -22.343002 4278255538
-32.526218 -8.0578833 -22.269192 4278255538
-32.627811 -8.1643763 -22.36639 4278255538
-32.532715 -8.1553249 -22.292568 4278255538
-32.539211 -8.2527943 -22.315948 4278255538
-32.545712 -8.3502903 -22.339336 4278255538
-32.552212 -8.447813 -22.362732 4278255538
-32.558716 -8.5453634 -22.386131 4278255538
-32.56522 -8.6429415 -22.409542 4278255538
-32.571728 -8.7405462 -22.432957 4278255538
-32.578236 -8.8381786 -22.456375 4278255538
-32.584747 -8.9358387 -22.479805 4278255538
-32.591259 -9.0335255 -22.503239 4278255538
-32.597775 -9.1312389 -22.52668 4278255538
-32.60429 -9.228981 -22.550125 4278255538
-32.610809 -9.3267488 -22.573582 4278255538
-32.617329 -9.4245453 -22.597042 4278255538
-32.522064 -9.4153519 -22.523067 4278255538
-32.623848 -9.5223684 -22.620506 4278255538
-32.528572 -9.5131636 -22.54652 4278255538
-32.630371 -9.6202192 -22.643982 4278255538
-32.535084 -9.6110039 -22.569984 4278255538
-32.636898 -9.7180977 -22.667461 4278255538
-32.541595 -9.7088709 -22.593449 4278255538
-32.548107 -9.8067646 -22.616924 4278255538
-32.554623 -9.9046869 -22.640404 4278255538
-32.561138 -10.002636 -22.663891 4278255538
-32.567657 -10.100613 -22.687386 4278255538
-32.574177 -10.198616 -22.710888 4278255538
-32.5807 -10.296648 -22.734394 4278255538
-32.587223 -10.394707 -22.757908 4278255538
-32.59375 -10.492793 -22.781425 4278255538
-32.498352 -10.483479 -22.707329 4278255538
-32.600277 -10.590906 -22.804951 4278255538
-32.504868 -10.581581 -22.730843 4278255538
-32.511383 -10.679711 -22.754364 4278255538
-32.517899 -10.777868 -22.777889 4278255538
-32.524418 -10.876054 -22.801422 4278255538
-32.530941 -10.974266 -22.824963 4278255538
-32.435493 -10.964897 -22.750816 4278255538
-32.53746 -11.072506 -22.848511 4278255538
-32.442001 -11.063127 -22.774349 4278255538
-32.448509 -11.161383 -22.79789 4278255538
-32.455025 -11.259666 -22.821438 4278255538
-32.461536 -11.357978 -22.84499 4278255538
-32.366055 -11.348567 -22.770809 4278255538
-32.372555 -11.446895 -22.794357 4278255538
-32.379059 -11.54525 -22.817909 4278255538
-32.385567 -11.643633 -22.841473 4278255538
-32.392071 -11.742043 -22.86504 4278255538
-32.296551 -11.732589 -22.790821 4278255538
-32.303047 -11.831016 -22.814381 4278255538
-32.309544 -11.92947 -22.837948 4278255538
-32.316044 -12.027952 -22.861523 4278255538
-32.220497 -12.018466 -22.787281 4278255538
-32.226986 -12.116964 -22.810848 4278255538
-32.233475 -12.21549 -22.834423 4278255538
-32.239964 -12.314044 -22.858006 4278255538
-32.144398 -12.304526 -22.783741 4278255538
-32.150875 -12.403096 -22.807316 4278255538
-32.157356 -12.501694 -22.830898 4278255538
-32.163837 -12.600319 -22.854485 4278255538
-32.068245 -12.590769 -22.780197 4278255538
-32.074715 -12.689411 -22.80378 4278255538
-32.081188 -12.78808 -22.827366 4278255538
-32.087662 -12.886778 -22.850964 4278255538
-31.992046 -12.877195 -22.776649 4278255538
-32.094135 -12.985502 -22.874565 4278255538
-31.998508 -12.975909 -22.80024 4278255538
-32.004971 -13.074651 -22.823837 4278255538
-32.011436 -13.173419 -22.847439 4278255538
-31.9158 -13.163806 -22.773102 4278255538
-31.922251 -13.262591 -22.7967 4278255538
-31.928705 -13.361404 -22.820301 4278255538
-31.935162 -13.460245 -22.84391 4278255538
-31.839502 -13.4506 -22.76955 4278255538
-31.845945 -13.549457 -22.793156 4278255538
-31.852392 -13.648341 -22.816765 4278255538
-31.756723 -13.638676 -22.742393 4278255538
-31.763157 -13.737576 -22.765999 4278255538
-31.769592 -13.836506 -22.789608 4278255538
-31.673916 -13.826819 -22.715229 4278255538
-31.680338 -13.925765 -22.738834 4278255538
-31.584667 -13.916068 -22.664455 4278255538
-31.686762 -14.024738 -22.762444 4278255538
-31.591078 -14.015031 -22.688053 4278255538
-31.597488 -14.11402 -22.711658 4278255538
-31.603903 -14.213038 -22.735268 4278255538
-31.508209 -14.20331 -22.660866 4278255538
-31.51461 -14.302344 -22.684471 4278255538
-31.418922 -14.292606 -22.610073 4278255538
-31.42531 -14.391657 -22.633671 4278255538
-31.431702 -14.490736 -22.657276 4278255538
-31.336004 -14.480977 -22.582867 4278255538
-31.342382 -14.580072 -22.606464 4278255538
-31.246691 -14.570304 -22.532059 4278255538
-31.348764 -14.679195 -22.630074 4278255538
-31.253057 -14.669415 -22.555649 4278255538
-31.259426 -14.768555 -22.57925 4278255538
-31.163723 -14.758766 -22.504829 4278255538
-31.17008 -14.857922 -22.528423 4278255538
-31.176437 -14.957106 -22.552025 4278255538
-31.080727 -14.947296 -22.477596 4278255538
-31.087072 -15.046496 -22.50119 4278255538
-30.991367 -15.036677 -22.426762 4278255538
-30.997702 -15.135894 -22.450348 4278255538
-31.004036 -15.235139 -22.473946 4278255538
-30.908321 -15.225299 -22.399506 4278255538
-30.914644 -15.32456 -22.423096 4278255538
-30.818935 -15.314711 -22.34866 4278255538
-30.825247 -15.413988 -22.372238 4278255538
-30.831558 -15.513294 -22.395828 4278255538
-30.73584 -15.503424 -22.321381 4278255538
-30.74214 -15.602746 -22.344963 4278255538
-30.748442 -15.702096 -22.368553 4278255538
-30.652716 -15.692205 -22.294098 4278255538
-30.659004 -15.791572 -22.31768 4278255538
-30.665295 -15.890966 -22.341267 4278255538
-30.569559 -15.881055 -22.2668 4278255538
-30.575838 -15.980466 -22.290382 4278255538
-30.480108 -15.970545 -22.215919 4278255538
-30.486374 -16.069973 -22.239494 4278255538
-30.492643 -16.169428 -22.263081 4278255538
-30.396904 -16.159487 -22.188602 4278255538
-30.40316 -16.258959 -22.212181 4278255538
-30.409416 -16.358459 -22.235764 4278255538
-30.313669 -16.348495 -22.161278 4278255538
-30.319914 -16.448011 -22.184853 4278255538
-30.224171 -16.43804 -22.110367 4278255538
-30.230404 -16.537573 -22.133942 4278255538
-30.134666 -16.527592 -22.059456 4278255538
-30.140888 -16.62714 -22.083023 4278255538
-30.14711 -16.726719 -22.106594 4278255538
-30.051363 -16.716715 -22.032101 4278255538
-30.057573 -16.816311 -22.055668 4278255538
-29.961832 -16.806297 -21.981174 4278255538
-29.968029 -16.905909 -22.004734 4278255538
-29.97423 -17.005548 -22.028301 4278255538
-29.878479 -16.995514 -21.9538 4278255538
-29.884666 -17.095171 -21.97736 4278255538
-29.890854 -17.194855 -22.000927 4278255538
-29.795095 -17.184799 -21.926414 4278255538
-29.801271 -17.2845 -21.949974 4278255538
-29.705519 -17.274437 -21.875465 4278255538
-29.711683 -17.374153 -21.899017 4278255538
-29.615934 -17.36408 -21.824509 4278255538
-29.622086 -17.463814 -21.848057 4278255538
-29.526342 -17.453732 -21.773552 4278255538
-29.532482 -17.55348 -21.797092 4278255538
-29.436745 -17.543388 -21.722588 4278255538
-29.538624 -17.653259 -21.820641 4278255538
-29.442871 -17.643156 -21.746124 4278255538
-29.347139 -17.633053 -21.671623 4278255538
-29.448999 -17.74295 -21.769669 4278255538
-29.353252 -17.732838 -21.695152 4278255538
-29.359369 -17.832649 -21.718689 4278255538
-29.263628 -17.822525 -21.644176 4278255538
-29.269732 -17.922354 -21.667706 4278255538
-29.173996 -17.912222 -21.593193 4278255538
-29.180088 -18.012066 -21.616718 4278255538
-29.084356 -18.001925 -21.54221 4278255538
-29.090435 -18.101786 -21.565727 4278255538
-28.994711 -18.091635 -21.491222 4278255538
-28.899004 -18.081486 -21.416729 4278255538
-28.905056 -18.181353 -21.440228 4278255538
-28.809357 -18.171192 -21.365738 4278255538
-28.713675 -18.161036 -21.291267 4278255538
-28.7197 -18.260908 -21.314743 4278255538
-28.624025 -18.250742 -21.240273 4278255538
-28.534367 -18.340454 -21.189278 4278255538
-28.438717 -18.33028 -21.114822 4278255538
-28.444704 -18.430174 -21.138275 4278255538
-27.978504 -18.579035 -20.812965 4278255538
-27.882927 -18.568838 -20.738564 4278255538
-27.787369 -18.558645 -20.664177 4278255538
-27.888834 -18.668747 -20.761959 4278255538
-27.793262 -18.658541 -20.687561 4278255538
-27.69771 -18.648338 -20.613174 4278255538
-27.70359 -18.748251 -20.636551 4278255538
-27.608044 -18.738039 -20.562168 4278255538
-27.512516 -18.727829 -20.487801 4278255538
-27.417007 -18.717619 -20.413448 4278255538
-27.321518 -18.707413 -20.339111 4278255538
-27.51837 -18.827747 -20.511158 4278255538
-27.422848 -18.817526 -20.436794 4278255538
-27.327343 -18.807308 -20.362442 4278255538
-27.231859 -18.797092 -20.288109 4278255538
-27.333172 -18.907232 -20.38578 4278255538
-27.237673 -18.897005 -20.311432 4278255538
-27.24349 -18.996944 -20.334766 4278255538
-27.147997 -18.986708 -20.260422 4278255538
-27.052523 -18.976473 -20.186089 4278255538
-27.153799 -19.086664 -20.283745 4278255538
-27.058311 -19.076418 -20.209404 4278255538
-27.064102 -19.176392 -20.232723 4278255538
-26.96862 -19.166136 -20.158382 4278255538
-26.9744 -19.266125 -20.181694 4278255538
-26.878922 -19.255859 -20.107357 4278255538
-26.980179 -19.366142 -20.205017 4278255538
-26.884687 -19.355865 -20.130661 4278255538
-26.890455 -19.4559 -20.153976 4278255538
-26.79497 -19.445614 -20.079628 4278255538
-26.800726 -19.545666 -20.102936 4278255538
-26.705244 -19.53537 -20.028587 4278255538
-26.710987 -19.635437 -20.051888 4278255538
-26.615513 -19.625132 -19.977543 4278255538
-26.621243 -19.725216 -20.000839 4278255538
-26.525772 -19.714901 -19.926495 4278255538
-26.626974 -19.825329 -20.024139 4278255538
-26.53149 -19.815002 -19.949783 4278255538
-26.436026 -19.804678 -19.875443 4278255538
-26.53721 -19.915133 -19.97308 4278255538
-26.441732 -19.904797 -19.898727 4278255538
-26.447439 -20.004942 -19.922016 4278255538
-26.351965 -19.994596 -19.847664 4278255538
-26.35766 -20.094759 -19.870945 4278255538
-26.363358 -20.19495 -19.894238 4278255538
-26.267876 -20.184584 -19.819874 4278255538
-26.27356 -20.28479 -19.843155 4278255538
-26.178082 -20.274414 -19.768795 4278255538
-26.183754 -20.37464 -19.792072 4278255538
-26.088282 -20.364254 -19.717716 4278255538
-26.093941 -20.464495 -19.740986 4278255538
-25.998474 -20.454098 -19.66663 4278255538
-26.004122 -20.554356 -19.689896 4278255538
-25.908661 -20.543951 -19.61554 4278255538
-25.914295 -20.644226 -19.638798 4278255538
-25.81884 -20.633812 -19.564449 4278255538
-25.824461 -20.734102 -19.5877 4278255538
-25.72901 -20.723679 -19.513351 4278255538
-25.830084 -20.834421 -19.610958 4278255538
-25.734619 -20.823986 -19.536598 4278255538
-25.740231 -20.924322 -19.559849 4278255538
-25.644772 -20.913877 -19.485489 4278255538
-25.549332 -20.903435 -19.411144 4278255538
-25.65037 -21.014229 -19.508736 4278255538
-25.554916 -21.003775 -19.43438 4278255538
-25.459482 -20.993322 -19.360035 4278255538
-25.560503 -21.104143 -19.457619 4278255538
-25.465054 -21.093679 -19.383263 4278255538
-25.470627 -21.194067 -19.406494 4278255538
-25.375185 -21.183592 -19.332142 4278255538
-25.380745 -21.283995 -19.35537 4278255538
-25.285307 -21.273512 -19.281017 4278255538
-25.290857 -21.373932 -19.304241 4278255538
-25.195423 -21.363438 -19.229889 4278255538
-25.20096 -21.463875 -19.253105 4278255538
-25.105534 -21.453373 -19.178761 4278255538
-25.111057 -21.553825 -19.201969 4278255538
-25.015635 -21.543314 -19.127625 4278255538
-25.021147 -21.643782 -19.150826 4278255538
-24.92573 -21.633261 -19.076481 4278255538
-24.931229 -21.733747 -19.099678 4278255538
-24.936729 -21.834261 -19.122879 4278255538
-24.841303 -21.823719 -19.048527 4278255538
-24.745897 -21.813179 -18.97419 4278255538
-24.846792 -21.92425 -19.071724 4278255538
-24.751371 -21.913698 -18.997375 4278255538
-24.655972 -21.903149 -18.923038 4278255538
-24.756847 -22.014246 -19.020565 4278255538
-24.661432 -22.003685 -18.946217 4278255538
-24.566036 -21.993124 -18.871883 4278255538
-24.666895 -22.104248 -18.969398 4278255538
-24.571486 -22.093678 -18.895054 4278255538
-24.576937 -22.194258 -18.918228 4278255538
-24.481533 -22.183678 -18.843887 4278255538
-24.486971 -22.284275 -18.867058 4278255538
-24.391571 -22.273685 -18.792717 4278255538
-24.396997 -22.3743 -18.81588 4278255538
-24.301603 -22.363701 -18.741539 4278255538
-24.307016 -22.464331 -18.764698 4278255538
-24.21163 -22.453722 -18.690361 4278255538
-24.21703 -22.554371 -18.713512 4278255538
-24.121647 -22.543751 -18.639179 4278255538
-24.127035 -22.644417 -18.662323 4278255538
-24.031658 -22.633787 -18.587994 4278255538
-24.037033 -22.734468 -18.61113 4278255538
-23.941662 -22.723831 -18.5368 4278255538
-23.947023 -22.82453 -18.559933 4278255538
-23.851658 -22.813881 -18.485607 4278255538
-23.857008 -22.914597 -18.508732 4278255538
-23.761646 -22.90394 -18.434406 4278255538
-23.766985 -23.004671 -18.457527 4278255538
-23.671629 -22.994005 -18.383202 4278255538
-23.576292 -22.983339 -18.308895 4278255538
-23.676954 -23.094753 -18.406319 4278255538
-23.581604 -23.084076 -18.331997 4278255538
-23.586916 -23.184841 -18.355103 4278255538
-23.491571 -23.174156 -18.280785 4278255538
-23.496872 -23.274937 -18.303886 4278255538
-23.401533 -23.264242 -18.229568 4278255538
-23.40682 -23.36504 -18.252663 4278255538
-23.311485 -23.354336 -18.178349 4278255538
-23.216171 -23.343634 -18.10405 4278255538
-23.316761 -23.455151 -18.201439 4278255538
-23.221432 -23.444437 -18.127125 4278255538
-23.126122 -23.433723 -18.05283 4278255538
-23.131371 -23.534544 -18.075897 4278255538
-23.036066 -23.523823 -18.001602 4278255538
-23.041304 -23.624659 -18.024666 4278255538
-22.946003 -23.613928 -17.950375 4278255538
-22.951227 -23.714781 -17.973431 4278255538
-22.855934 -23.704041 -17.899139 4278255538
-22.861145 -23.804911 -17.922192 4278255538
-22.765856 -23.794161 -17.8479 4278255538
-22.670588 -23.783413 -17.773628 4278255538
-22.771055 -23.895048 -17.870945 4278255538
-22.675772 -23.884287 -17.796661 4278255538
-22.580509 -23.873529 -17.722389 4278255538
-22.58568 -23.974422 -17.745415 4278255538
-22.490423 -23.963654 -17.671146 4278255538
-22.495583 -24.064564 -17.694164 4278255538
-22.40033 -24.053785 -17.6199 4278255538
-22.305096 -24.043011 -17.545647 4278255538
-22.310228 -24.143925 -17.568645 4278255538
-22.215 -24.133141 -17.494396 4278255538
-22.220121 -24.234072 -17.517391 4278255538
-22.124899 -24.223278 -17.443146 4278255538
-22.130007 -24.324224 -17.466129 4278255538
-22.034788 -24.313421 -17.391884 4278255538
-22.039885 -24.414385 -17.414867 4278255538
-21.944672 -24.403572 -17.340622 4278255538
-21.84948 -24.392761 -17.266396 4278255538
-21.854549 -24.493731 -17.28936 4278255538
-21.759361 -24.48291 -17.215134 4278255538
-21.764418 -24.583895 -17.238087 4278255538
-21.669235 -24.573065 -17.163864 4278255538
-21.67428 -24.674068 -17.186813 4278255538
-21.579103 -24.663227 -17.112595 4278255538
-21.584135 -24.764248 -17.135536 4278255538
-21.488962 -24.753399 -17.061317 4278255538
-21.39381 -24.742552 -16.987114 4278255538
-21.398815 -24.843575 -17.010036 4278255538
-21.303669 -24.832718 -16.935837 4278255538
-21.308662 -24.93376 -16.958755 4278255538
-21.21352 -24.922894 -16.884556 4278255538
-21.2185 -25.023951 -16.907467 4278255538
-21.123363 -25.013075 -16.833267 4278255538
-21.028248 -25.002201 -16.759087 4278255538
-21.033201 -25.103264 -16.781979 4278255538
-20.938089 -25.092381 -16.707802 4278255538
-20.943029 -25.19346 -16.730686 4278255538
-20.847923 -25.182568 -16.656509 4278255538
-20.752836 -25.171677 -16.582344 4278255538
-20.757751 -25.272762 -16.605213 4278255538
-20.66267 -25.261862 -16.531052 4278255538
-20.667572 -25.362963 -16.553913 4278255538
-20.572496 -25.352053 -16.479755 4278255538
-20.47744 -25.341146 -16.405613 4278255538
-20.482315 -25.442251 -16.428452 4278255538
-20.387264 -25.431335 -16.354313 4278255538
-20.292231 -25.42042 -16.280186 4278255538
-20.297081 -25.521532 -16.303009 4278255538
-20.202053 -25.510607 -16.228886 4278255538
-20.107046 -25.499685 -16.154778 4278255538
-20.11187 -25.600801 -16.177582 4278255538
-20.016867 -25.589869 -16.103477 4278255538
-20.021677 -25.691002 -16.12627 4278255538
-19.92668 -25.680059 -16.05217 4278255538
-19.831703 -25.669121 -15.978081 4278255538
-19.931479 -25.78121 -16.074959 4278255538
-19.836487 -25.770258 -16.000858 4278255538
-19.741514 -25.75931 -15.926773 4278255538
-19.746284 -25.860464 -15.949543 4278255538
-19.651318 -25.849506 -15.875458 4278255538
-19.656076 -25.950678 -15.898224 4278255538
-19.561115 -25.939711 -15.824142 4278255538
-19.565863 -26.040897 -15.846901 4278255538
-19.470905 -26.029921 -15.77282 4278255538
-19.475639 -26.131124 -15.79557 4278255538
-19.38069 -26.120138 -15.721497 4278255538
-19.38541 -26.221359 -15.74424 4278255538
-19.290464 -26.210363 -15.670166 4278255538
-19.295174 -26.311602 -15.692905 4278255538
-19.200233 -26.300594 -15.618832 4278255538
-19.299883 -26.412868 -15.715649 4278255538
-19.204929 -26.40185 -15.641563 4278255538
-19.109995 -26.390835 -15.567493 4278255538
-19.209625 -26.503134 -15.664303 4278255538
-19.114677 -26.492107 -15.590221 4278255538
-19.119362 -26.593407 -15.612953 4278255538
-19.02442 -26.582371 -15.538872 4278255538
-19.029091 -26.683687 -15.561596 4278255538
-18.934155 -26.67264 -15.487522 4278255538
-18.839235 -26.661596 -15.413456 4278255538
-18.938814 -26.773975 -15.510239 4278255538
-18.843882 -26.762918 -15.436165 4278255538
-18.748968 -26.751863 -15.362103 4278255538
-18.848528 -26.864269 -15.458878 4278255538
-18.753601 -26.853203 -15.384804 4278255538
-18.658693 -26.842138 -15.310745 4278255538
-18.758236 -26.954571 -15.407509 4278255538
-18.663313 -26.943495 -15.333439 4278255538
-18.568411 -26.932421 -15.25938 4278255538
-18.667936 -27.04488 -15.35614 4278255538
-18.573019 -27.033794 -15.28207 4278255538
-18.478123 -27.022711 -15.208015 4278255538
-18.577629 -27.135195 -15.304764 4278255538
-18.482718 -27.1241 -15.230698 4278255538
-18.487314 -27.225519 -15.253384 4278255538
-18.392408 -27.214415 -15.179321 4278255538
-18.297523 -27.203312 -15.10527 4278255538
-18.302094 -27.304735 -15.127941 4278255538
-18.207212 -27.293623 -15.053894 4278255538
-18.306665 -27.406187 -15.150616 4278255538
-18.211771 -27.395063 -15.076557 4278255538
-18.21633 -27.496532 -15.099224 4278255538
-18.121439 -27.485397 -15.025166 4278255538
-18.125986 -27.586884 -15.047829 4278255538
-18.031103 -27.575741 -14.973774 4278255538
-18.035637 -27.677242 -14.996429 4278255538
-17.940758 -27.66609 -14.922375 4278255538
-17.945278 -27.767609 -14.945026 4278255538
-17.850407 -27.756447 -14.870975 4278255538
-17.854914 -27.857983 -14.89362 4278255538
-17.760046 -27.846811 -14.819569 4278255538
-17.764544 -27.948364 -14.842209 4278255538
-17.66968 -27.937181 -14.768158 4278255538
-17.674164 -28.038752 -14.790791 4278255538
-17.579308 -28.027561 -14.716747 4278255538
-17.583778 -28.129147 -14.739372 4278255538
-17.488926 -28.117947 -14.665329 4278255538
-17.493385 -28.219549 -14.687946 4278255538
-17.398539 -28.20834 -14.613907 4278255538
-17.402985 -28.309959 -14.63652 4278255538
-17.308144 -28.298738 -14.562481 4278255538
-17.312576 -28.400375 -14.585087 4278255538
-17.217741 -28.389147 -14.511051 4278255538
-17.222162 -28.490799 -14.533649 4278255538
-17.127333 -28.479561 -14.459618 4278255538
-17.131739 -28.58123 -14.482208 4278255538
-17.036915 -28.569983 -14.40818 4278255538
-17.041309 -28.671669 -14.430763 4278255538
-16.946491 -28.66041 -14.356735 4278255538
-16.950874 -28.762115 -14.379318 4278255538
-16.85606 -28.750847 -14.30529 4278255538
-16.86043 -28.852568 -14.327866 4278255538
-16.765621 -28.84129 -14.253841 4278255538
-16.769979 -28.943027 -14.276409 4278255538
-16.675177 -28.93174 -14.202385 4278255538
-16.679522 -29.033495 -14.224945 4278255538
-16.584724 -29.022198 -14.150928 4278255538
-16.589056 -29.12397 -14.173481 4278255538
-16.494265 -29.112663 -14.099464 4278255538
-16.498583 -29.214451 -14.122013 4278255538
-16.403797 -29.203135 -14.047997 4278255538
-16.309029 -29.19182 -13.973999 4278255538
-16.408104 -29.304939 -14.070541 4278255538
-16.313322 -29.293613 -13.996525 4278255538
-16.317617 -29.395435 -14.019062 4278255538
-16.222841 -29.3841 -13.945053 4278255538
-16.227123 -29.485939 -13.967583 4278255538
-16.132353 -29.474594 -13.893574 4278255538
-16.037601 -29.463251 -13.81958 4278255538
-16.136621 -29.57645 -13.916096 4278255538
-16.041857 -29.565094 -13.842091 4278255538
-15.947112 -29.553741 -13.768101 4278255538
-15.951354 -29.655603 -13.790604 4278255538
-15.856614 -29.644241 -13.716614 4278255538
-15.860843 -29.746119 -13.739109 4278255538
-15.766109 -29.734747 -13.665123 4278255538
-15.770326 -29.836641 -13.687614 4278255538
-15.774545 -29.938564 -13.710114 4278255538
-15.679801 -29.92717 -13.636116 4278255538
-15.585076 -29.915779 -13.562134 4278255538
-15.684007 -30.02911 -13.658607 4278255538
-15.589269 -30.017708 -13.58461 4278255538
-15.49455 -30.006306 -13.510632 4278255538
-15.498731 -30.108252 -13.533104 4278255538
-15.50291 -30.210226 -13.55558 4278255538
-15.408183 -30.198803 -13.48159 4278255538
-15.412351 -30.300795 -13.504063 4278255538
-15.31763 -30.289362 -13.430077 4278255538
-15.321784 -30.391369 -13.452541 4278255538
-15.227069 -30.379927 -13.378555 4278255538
-15.32594 -30.493406 -13.47501 4278255538
-15.231212 -30.481953 -13.401016 4278255538
-15.1365 -30.470501 -13.32703 4278255538
-15.235354 -30.584005 -13.423477 4278255538
-15.14063 -30.572542 -13.349483 4278255538
-15.144761 -30.674612 -13.371941 4278255538
-15.050042 -30.663139 -13.297947 4278255538
-15.05416 -30.765226 -13.3204 4278255538
-14.959447 -30.753744 -13.24641 4278255538
-14.963553 -30.855848 -13.268856 4278255538
-14.868844 -30.844355 -13.194866 4278255538
-14.872937 -30.946476 -13.217304 4278255538
-14.778235 -30.934975 -13.143322 4278255538
-14.877032 -31.048626 -13.239754 4278255538
-14.782315 -31.037111 -13.165752 4278255538
-14.786397 -31.139278 -13.18819 4278255538
-14.691686 -31.127754 -13.114193 4278255538
-14.695754 -31.229939 -13.136627 4278255538
-14.601048 -31.218405 -13.062634 4278255538
-14.605105 -31.320606 -13.08506 4278255538
-14.510406 -31.309063 -13.011066 4278255538
-14.514449 -31.41128 -13.033489 4278255538
-14.419753 -31.399727 -12.959496 4278255538
-14.423785 -31.501963 -12.981911 4278255538
-14.329095 -31.490398 -12.907925 4278255538
-14.234426 -31.478838 -12.83395 4278255538
-14.238429 -31.581078 -12.856346 4278255538
-14.143765 -31.569508 -12.782375 4278255538
-14.147756 -31.671764 -12.804764 4278255538
-14.053098 -31.660185 -12.730797 4278255538
-13.958457 -31.648607 -12.656841 4278255538
-13.962422 -31.750868 -12.679211 4278255538
-13.867787 -31.739283 -12.605259 4278255538
-13.871741 -31.84156 -12.627625 4278255538
-13.777112 -31.829964 -12.553673 4278255538
-13.682502 -31.818369 -12.47974 4278255538
-13.686427 -31.920652 -12.502083 4278255538
-13.591823 -31.909048 -12.428154 4278255538
-13.497239 -31.897446 -12.354237 4278255538
-13.595737 -32.011349 -12.450489 4278255538
-13.501138 -31.999735 -12.37656 4278255538
-13.406558 -31.988123 -12.302647 4278255538
-13.410445 -32.090427 -12.324966 4278255538
-13.315871 -32.078804 -12.251053 4278255538
-13.221316 -32.067188 -12.177158 4278255538
-13.225177 -32.169495 -12.199455 4278255538
-13.130628 -32.157867 -12.125561 4278255538
-13.134475 -32.260197 -12.147854 4278255538
-13.039931 -32.248558 -12.073963 4278255538
-11.718331 -32.085873 -11.041054 4278255538
-11.624074 -32.074268 -10.967384 4278255538
-11.529838 -32.062668 -10.893734 4278255538
-11.43562 -32.051071 -10.820099 4278255538
-13.043765 -32.350899 -12.096249 4278255538
-12.949227 -32.339252 -12.022358 4278255538
-12.854707 -32.327606 -11.948483 4278255538
-12.476823 -32.281048 -11.653137 4278255538
-12.3824 -32.269417 -11.579338 4278255538
-12.287995 -32.257786 -11.505554 4278255538
-12.19361 -32.246155 -11.431782 4278255538
-12.099244 -32.234528 -11.358028 4278255538
-12.004897 -32.222904 -11.28429 4278255538
-11.910571 -32.211285 -11.210564 4278255538
-11.816262 -32.199665 -11.136856 4278255538
-11.721972 -32.188046 -11.06316 4278255538
-11.627704 -32.176434 -10.989483 4278255538
-11.533452 -32.164818 -10.915817 4278255538
-12.764003 -32.418301 -11.896877 4278255538
-12.669507 -32.406647 -11.823021 4278255538
-12.575032 -32.394997 -11.74918 4278255538
-12.480577 -32.38335 -11.675354 4278255538
-11.819919 -32.30188 -11.158981 4278255538
-11.725617 -32.290249 -11.085274 4278255538
-11.631333 -32.278625 -11.011581 4278255538
