# .PCD v0.7 - Point Cloud Data file format
VERSION 0.7
FIELDS x y z rgb
SIZE 4 4 4 4
TYPE F F F U
COUNT 1 1 1 1
WIDTH 1127
HEIGHT 1
VIEWPOINT 0 0 0 1 0 0 0
POINTS 1127
DATA ascii
-85.895432 14.118114 7.9444799 4278255488
-85.802345 14.124155 8.0162039 4278255488
-85.809853 14.033453 7.9933348 4278255488
-85.716774 14.039501 8.0650587 4278255488
-85.724274 13.948786 8.0421972 4278255488
-85.631203 13.954842 8.1139135 4278255488
-85.638687 13.864111 8.0910597 4278255488
-85.545624 13.870176 8.162776 4278255488
-85.553093 13.77943 8.139926 4278255488
-85.46003 13.785503 8.2116423 4278255488
-85.467499 13.694742 8.188796 4278255488
-85.374435 13.700825 8.2605124 4278255488
-85.381889 13.61005 8.2376738 4278255488
-85.288834 13.61614 8.3093863 4278255488
-85.29628 13.525349 8.2865515 4278255488
-85.203232 13.531448 8.3582602 4278255488
-85.210663 13.440643 8.335433 4278255488
-85.117615 13.446751 8.4071417 4278255488
-85.125031 13.35593 8.3843184 4278255488
-85.031998 13.362045 8.456027 4278255488
-85.039398 13.27121 8.4332113 4278255488
-84.946365 13.277334 8.5049124 4278255488
-84.853348 13.283459 8.576602 4278255488
-84.953766 13.186483 8.4821043 4278255488
-84.860733 13.192617 8.5538054 4278255488
-84.868118 13.101751 8.5310011 4278255488
-84.775093 13.107893 8.6027021 4278255488
-84.682083 13.114035 8.6743879 4278255488
-84.782463 13.017012 8.5799017 4278255488
-84.689445 13.023163 8.6515989 4278255488
-84.596443 13.029312 8.7232847 4278255488
-84.696808 12.932268 8.6288061 4278255488
-84.60379 12.938425 8.7005033 4278255488
-84.510796 12.944584 8.7721853 4278255488
-84.611145 12.847515 8.6777143 4278255488
-84.518135 12.853682 8.7494078 4278255488
-84.525475 12.762756 8.7266264 4278255488
-84.432465 12.768932 8.7983198 4278255488
-84.339478 12.775106 8.869998 4278255488
-84.439796 12.677992 8.7755423 4278255488
-84.346794 12.684175 8.8472319 4278255488
-84.253807 12.690359 8.91891 4278255488
-84.354111 12.593222 8.8244619 4278255488
-84.261116 12.599413 8.8961515 4278255488
-84.168137 12.605604 8.9678221 4278255488
-84.17543 12.514645 8.9450712 4278255488
-84.082451 12.520844 9.0167418 4278255488
-84.089737 12.429869 8.9939985 4278255488
-83.996765 12.436077 9.0656652 4278255488
-84.004036 12.345087 9.0429258 4278255488
-83.911072 12.351303 9.1145926 4278255488
-83.918327 12.260298 9.091857 4278255488
-83.825371 12.266523 9.1635237 4278255488
-83.832619 12.175503 9.1407957 4278255488
-83.739662 12.181736 9.2124586 4278255488
-83.746895 12.090702 9.1897345 4278255488
-83.653946 12.096943 9.2613974 4278255488
-83.661171 12.005894 9.238677 4278255488
-83.56823 12.012144 9.3103361 4278255488
-83.575439 11.92108 9.2876272 4278255488
-83.482498 11.927338 9.3592825 4278255488
-83.4897 11.836258 9.3365774 4278255488
-83.396767 11.842525 9.4082327 4278255488
-83.303848 11.848791 9.4798727 4278255488
-83.403961 11.751431 9.3855314 4278255488
-83.311028 11.757706 9.4571867 4278255488
-83.218117 11.763981 9.5288229 4278255488
-83.318207 11.666595 9.4344893 4278255488
-83.225281 11.67288 9.5061407 4278255488
-83.232445 11.581757 9.4834547 4278255488
-83.139526 11.588049 9.5551023 4278255488
-83.146683 11.496908 9.5324202 4278255488
-83.053764 11.50321 9.6040678 4278255488
-82.960869 11.509512 9.6757002 4278255488
-83.060913 11.412056 9.5813894 4278255488
-82.968002 11.418365 9.6530333 4278255488
-82.975136 11.327196 9.6303625 4278255488
-82.882225 11.333515 9.7020063 4278255488
-82.889351 11.242331 9.6793394 4278255488
-82.796448 11.248657 9.7509832 4278255488
-82.703568 11.254982 9.822608 4278255488
-82.803558 11.157457 9.7283201 4278255488
-82.710663 11.163792 9.7999601 4278255488
-82.717766 11.072578 9.7773046 4278255488
-82.62487 11.078922 9.8489447 4278255488
-82.631958 10.987692 9.826293 4278255488
-82.53907 10.994045 9.8979292 4278255488
-82.54615 10.9028 9.8752851 4278255488
-82.453262 10.909161 9.9469213 4278255488
-82.360397 10.915522 10.018538 4278255488
-82.460335 10.817902 9.9242849 4278255488
-82.367455 10.82427 9.9959135 4278255488
-82.274597 10.830639 10.067531 4278255488
-82.281631 10.739374 10.044913 4278255488
-82.188782 10.74575 10.116527 4278255488
-82.195808 10.65447 10.093913 4278255488
-82.102959 10.660856 10.165526 4278255488
-82.109978 10.569561 10.142917 4278255488
-82.017136 10.575954 10.21453 4278255488
-82.024139 10.484646 10.191928 4278255488
-81.931297 10.491047 10.263537 4278255488
-81.938293 10.399723 10.240939 4278255488
-81.845459 10.406134 10.312549 4278255488
-81.85244 10.314795 10.289958 4278255488
-81.759613 10.321213 10.36156 4278255488
-81.666801 10.327631 10.433154 4278255488
-81.766586 10.229858 10.338977 4278255488
-81.673759 10.236286 10.410579 4278255488
-81.580948 10.242712 10.482169 4278255488
-81.680717 10.144917 10.388 4278255488
-81.587898 10.151352 10.459601 4278255488
-81.495094 10.157787 10.531188 4278255488
-81.502029 10.066412 10.508628 4278255488
-81.409233 10.072857 10.580211 4278255488
-81.416161 9.9814663 10.557658 4278255488
-81.323364 9.9879189 10.629241 4278255488
-81.330284 9.896513 10.606688 4278255488
-81.237488 9.9029732 10.678271 4278255488
-81.244392 9.811554 10.655726 4278255488
-81.151611 9.8180237 10.727305 4278255488
-81.158501 9.7265873 10.704768 4278255488
-81.06572 9.7330647 10.776343 4278255488
-81.072601 9.6416149 10.753814 4278255488
-80.979828 9.6481018 10.825385 4278255488
-80.986694 9.5566368 10.802859 4278255488
-80.893929 9.5631313 10.874434 4278255488
-80.900787 9.4716511 10.851912 4278255488
-80.808022 9.4781551 10.923484 4278255488
-80.814865 9.3866596 10.90097 4278255488
-80.722107 9.3931713 10.972537 4278255488
-80.629364 9.3996811 11.044089 4278255488
-80.728943 9.3016605 10.950027 4278255488
-80.636185 9.3081818 11.021594 4278255488
-80.543449 9.3147011 11.093146 4278255488
-80.643005 9.2166557 10.999091 4278255488
-80.550262 9.2231846 11.070655 4278255488
-80.457527 9.2297115 11.142203 4278255488
-80.557068 9.1316452 11.048156 4278255488
-80.464325 9.1381817 11.11972 4278255488
-80.371597 9.1447182 11.191268 4278255488
-80.471123 9.046627 11.097228 4278255488
-80.378387 9.0531731 11.168788 4278255488
-80.28566 9.0597172 11.240333 4278255488
-80.385178 8.9616013 11.1463 4278255488
-80.292435 8.9681568 11.21786 4278255488
-80.199722 8.9747105 11.289405 4278255488
-80.299217 8.8765717 11.19538 4278255488
-80.206482 8.8831348 11.266936 4278255488
-80.11377 8.8896961 11.338477 4278255488
-80.120522 8.7981052 11.316016 4278255488
-80.027817 8.8046761 11.387557 4278255488
-80.034561 8.7130699 11.3651 4278255488
-79.941856 8.7196484 11.436637 4278255488
-79.948586 8.6280289 11.414187 4278255488
-79.855888 8.6346149 11.485724 4278255488
-79.862602 8.5429802 11.463279 4278255488
-79.769913 8.5495758 11.534812 4278255488
-79.776619 8.4579258 11.512374 4278255488
-79.683929 8.464529 11.583903 4278255488
-79.690628 8.3728638 11.561473 4278255488
-79.597946 8.3794765 11.633002 4278255488
-79.60463 8.287796 11.610572 4278255488
-79.511948 8.2944183 11.682101 4278255488
-79.518623 8.2027225 11.659678 4278255488
-79.425949 8.2093525 11.731204 4278255488
-79.43261 8.1176414 11.708789 4278255488
-79.339943 8.124279 11.780314 4278255488
-79.346588 8.0325546 11.757903 4278255488
-79.253929 8.0392017 11.829425 4278255488
-79.260567 7.9474602 11.807021 4278255488
-79.167908 7.9541149 11.878539 4278255488
-79.17453 7.86236 11.856143 4278255488
-79.081879 7.8690243 11.927661 4278255488
-79.088493 7.7772522 11.905265 4278255488
-78.995842 7.783926 11.976783 4278255488
-79.002449 7.6921406 11.954394 4278255488
-78.909805 7.6988201 12.025908 4278255488
-78.916397 7.6070194 12.003528 4278255488
-78.823753 7.6137104 12.075038 4278255488
-78.731133 7.6203976 12.146537 4278255488
-78.830338 7.5218945 12.052665 4278255488
-78.737701 7.5285912 12.124171 4278255488
-78.645088 7.5352898 12.19567 4278255488
-78.74427 7.4367599 12.101802 4278255488
-78.651642 7.4434681 12.173312 4278255488
-78.559029 7.4501743 12.244803 4278255488
-78.658203 7.3516216 12.150947 4278255488
-78.565575 7.3583374 12.222453 4278255488
-78.472969 7.3650513 12.293944 4278255488
-78.572121 7.2664757 12.200095 4278255488
-78.4795 7.2731991 12.271598 4278255488
-78.386902 7.2799225 12.343085 4278255488
-78.486038 7.181324 12.249244 4278255488
-78.393425 7.188055 12.320746 4278255488
-78.300827 7.194788 12.392234 4278255488
-78.399948 7.0961647 12.2984 4278255488
-78.307335 7.1029053 12.369899 4278255488
-78.214745 7.1096458 12.441386 4278255488
-78.31385 7.0109997 12.34756 4278255488
-78.221245 7.0177498 12.419055 4278255488
-78.128654 7.024498 12.490539 4278255488
-78.135147 6.9325848 12.468215 4278255488
-78.141632 6.8406487 12.445888 4278255488
-78.049034 6.8474159 12.517379 4278255488
-78.055519 6.7554646 12.495059 4278255488
-77.962921 6.7622395 12.566546 4278255488
-77.969391 6.6702728 12.54423 4278255488
-77.975861 6.5782814 12.521907 4278255488
-77.883263 6.5850754 12.59341 4278255488
-77.889717 6.4930687 12.57109 4278255488
-77.896179 6.4010353 12.548766 4278255488
-77.803574 6.4078484 12.620276 4278255488
-77.81002 6.3158016 12.59796 4278255488
-77.816467 6.2237301 12.575637 4278255488
-77.723854 6.2305603 12.647155 4278255488
-77.730293 6.1384735 12.624839 4278255488
-77.736732 6.0463619 12.602515 4278255488
-77.743172 5.9542255 12.580184 4278255488
-77.650536 5.9610844 12.651725 4278255488
-77.656967 5.8689327 12.629401 4278255488
-77.663399 5.7767544 12.60707 4278255488
-77.66983 5.6845531 12.584735 4278255488
-77.67627 5.5923252 12.562392 4278255488
-77.583595 5.5992222 12.633967 4278255488
-77.590019 5.5069809 12.611632 4278255488
-77.596443 5.4147129 12.58929 4278255488
-77.602875 5.3224201 12.566939 4278255488
-77.609306 5.2301025 12.544585 4278255488
-77.516594 5.2370396 12.616195 4278255488
-77.52301 5.1447067 12.593844 4278255488
-77.529434 5.0523491 12.57149 4278255488
-77.535858 4.9599657 12.549129 4278255488
-77.443123 4.9669304 12.620761 4278255488
-77.542282 4.8675575 12.526763 4278255488
-77.449539 4.8745317 12.598407 4278255488
-77.455948 4.7821093 12.576045 4278255488
-77.462364 4.689661 12.553676 4278255488
-77.468781 4.597187 12.531302 4278255488
-77.376015 4.6041899 12.602969 4278255488
-77.382416 4.5117016 12.5806 4278255488
-77.388824 4.4191875 12.558227 4278255488
-77.395226 4.3266487 12.535846 4278255488
-77.401642 4.2340841 12.513461 4278255488
-77.308838 4.2411261 12.585158 4278255488
-77.315239 4.1485472 12.562778 4278255488
-77.32164 4.0559425 12.540393 4278255488
-77.328041 3.9633121 12.518001 4278255488
-77.235214 3.9703827 12.589721 4278255488
-77.241608 3.877738 12.567336 4278255488
-77.248001 3.7850676 12.54494 4278255488
-77.254387 3.6923723 12.522544 4278255488
-77.260788 3.5996513 12.50014 4278255488
-77.167931 3.606761 12.571895 4278255488
-77.174316 3.5140247 12.549495 4278255488
-77.180695 3.4212637 12.527087 4278255488
-77.187088 3.3284769 12.504676 4278255488
-77.094208 3.3356152 12.576453 4278255488
-77.100586 3.2428131 12.554049 4278255488
-77.106956 3.1499863 12.531638 4278255488
-77.113335 3.0571337 12.509219 4278255488
-77.020439 3.0643005 12.581019 4278255488
-77.02681 2.9714327 12.558604 4278255488
-77.033173 2.87854 12.536189 4278255488
-77.039543 2.7856226 12.513766 4278255488
-76.946625 2.7928181 12.585586 4278255488
-76.952988 2.6998844 12.563167 4278255488
-76.959343 2.606926 12.540744 4278255488
-76.965706 2.5139418 12.518313 4278255488
-76.872765 2.5211658 12.590156 4278255488
-76.879112 2.4281664 12.567729 4278255488
-76.885468 2.3351412 12.545299 4278255488
-76.891823 2.2420912 12.522861 4278255488
-76.798859 2.2493448 12.594726 4278255488
-76.805199 2.1562796 12.572295 4278255488
-76.811546 2.0631886 12.549857 4278255488
-76.718575 2.0704603 12.621734 4278255488
-76.724907 1.977354 12.599303 4278255488
-76.731239 1.884223 12.576865 4278255488
-76.737579 1.7910662 12.55442 4278255488
-76.644585 1.7983665 12.626315 4278255488
-76.650909 1.7051945 12.603881 4278255488
-76.657234 1.6119976 12.581435 4278255488
-76.663567 1.518774 12.558986 4278255488
-76.570549 1.526104 12.630904 4278255488
-76.576866 1.4328661 12.608462 4278255488
-76.583183 1.3396015 12.586009 4278255488
-76.5895 1.2463131 12.563556 4278255488
-76.595825 1.152998 12.541095 4278255488
-76.502777 1.160367 12.613044 4278255488
-76.509087 1.0670366 12.590587 4278255488
-76.515396 0.97368145 12.568126 4278255488
-76.521713 0.88030052 12.545657 4278255488
-76.52803 0.78689384 12.523185 4278255488
-76.534348 0.69346142 12.500701 4278255488
-76.441246 0.70088005 12.5727 4278255488
-76.447548 0.60743237 12.550227 4278255488
-76.453857 0.51395893 12.527743 4278255488
-76.460167 0.4204607 12.505256 4278255488
-76.466476 0.32693672 12.482764 4278255488
-76.472794 0.23338698 12.460265 4278255488
-76.479103 0.1398115 12.437758 4278255488
-76.385941 0.14729021 12.509814 4278255488
-76.48542 0.046211231 12.415248 4278255488
-76.392242 0.053699482 12.487315 4278255488
-76.398552 -0.039917003 12.464808 4278255488
-76.404854 -0.13355924 12.442298 4278255488
-76.411163 -0.22722627 12.41978 4278255488
-76.417473 -0.32091999 12.397254 4278255488
-76.423782 -0.41463852 12.374724 4278255488
-76.430099 -0.5083828 12.352187 4278255488
-76.336861 -0.50083447 12.424315 4278255488
-76.436417 -0.60215282 12.329646 4278255488
-76.343163 -0.594594 12.401782 4278255488
-76.349464 -0.68838024 12.379249 4278255488
-76.355774 -0.78219128 12.356704 4278255488
-76.362076 -0.87602806 12.334155 4278255488
-76.368385 -0.96989059 12.311599 4278255488
-76.374695 -1.0637789 12.289039 4278255488
-76.281395 -1.0561705 12.361224 4278255488
-76.287697 -1.150074 12.338668 4278255488
-76.293999 -1.2440033 12.316104 4278255488
-76.300301 -1.3379583 12.293536 4278255488
-76.306602 -1.4319401 12.270965 4278255488
-76.312904 -1.5259466 12.248382 4278255488
-76.219559 -1.5182877 12.320613 4278255488
-76.225853 -1.6123104 12.298038 4278255488
-76.232147 -1.706358 12.275458 4278255488
-76.238441 -1.8004322 12.252872 4278255488
-76.244743 -1.8945312 12.230281 4278255488
-76.251045 -1.988657 12.207679 4278255488
-76.157646 -1.9809484 12.279956 4278255488
-76.16394 -2.0750895 12.257365 4278255488
-76.170227 -2.1692553 12.234763 4278255488
-76.176521 -2.2634478 12.212157 4278255488
-76.182816 -2.357666 12.189548 4278255488
-76.18911 -2.45191 12.16693 4278255488
-76.095665 -2.4441519 12.239253 4278255488
-76.101952 -2.5384121 12.21664 4278255488
-76.108238 -2.6326971 12.194022 4278255488
-76.114525 -2.7270088 12.171397 4278255488
-76.120811 -2.8213463 12.148768 4278255488
-76.127098 -2.9157085 12.126132 4278255488
-76.033607 -2.9078999 12.198501 4278255488
-76.039886 -3.0022793 12.175868 4278255488
-76.046165 -3.0966835 12.153232 4278255488
-76.052452 -3.1911139 12.130588 4278255488
-75.958939 -3.1832757 12.202983 4278255488
-76.058739 -3.2855706 12.10794 4278255488
-75.96521 -3.2777219 12.180343 4278255488
-75.971481 -3.3721938 12.157699 4278255488
-75.977753 -3.466692 12.135051 4278255488
-75.984032 -3.5612159 12.112395 4278255488
-75.990311 -3.655766 12.089732 4278255488
-75.896744 -3.6478767 12.162169 4278255488
-75.903008 -3.7424426 12.139514 4278255488
-75.909279 -3.8370337 12.116851 4278255488
-75.815704 -3.8291259 12.1893 4278255488
-75.82196 -3.9237328 12.166644 4278255488
-75.828217 -4.0183659 12.143981 4278255488
-75.83448 -4.1130252 12.121314 4278255488
-75.840736 -4.2077103 12.098636 4278255488
-75.747131 -4.1997619 12.171123 4278255488
-75.75338 -4.2944627 12.148452 4278255488
-75.759628 -4.3891892 12.125777 4278255488
-75.765884 -4.483942 12.103095 4278255488
-75.672256 -4.4759641 12.175601 4278255488
-75.678497 -4.5707326 12.152923 4278255488
-75.684738 -4.6655269 12.13024 4278255488
-75.690979 -4.7603478 12.107554 4278255488
-75.697227 -4.8551946 12.084857 4278255488
-75.603561 -4.8471761 12.157401 4278255488
-75.609795 -4.9420381 12.134711 4278255488
-75.616035 -5.0369267 12.112018 4278255488
-75.622269 -5.1318412 12.089316 4278255488
-75.62851 -5.2267818 12.066607 4278255488
-75.534805 -5.2187233 12.139182 4278255488
-75.541039 -5.3136792 12.116481 4278255488
-75.547264 -5.4086618 12.093772 4278255488
-75.553497 -5.5036707 12.071059 4278255488
-75.559731 -5.5987053 12.048339 4278255488
-75.565964 -5.6937661 12.025615 4278255488
-75.472214 -5.6856565 12.098235 4278255488
-75.572197 -5.7888536 12.002879 4278255488
-75.478439 -5.7807331 12.075515 4278255488
-75.484657 -5.8758359 12.052787 4278255488
-75.490891 -5.9709649 12.030055 4278255488
-75.497116 -6.0661201 12.007316 4278255488
-75.503342 -6.1613016 11.984572 4278255488
-75.509575 -6.2565098 11.961818 4278255488
-75.515808 -6.3517437 11.939059 4278255488
-75.522041 -6.4470038 11.916297 4278255488
-75.428207 -6.4388113 11.989001 4278255488
-75.528282 -6.5422902 11.893527 4278255488
-75.434425 -6.5340872 11.966243 4278255488
-75.534515 -6.6376033 11.870749 4278255488
-75.440651 -6.6293893 11.94348 4278255488
-75.446877 -6.7247181 11.920711 4278255488
-75.45311 -6.8200727 11.897933 4278255488
-75.459335 -6.9154539 11.875148 4278255488
-75.465569 -7.0108614 11.852359 4278255488
-75.471802 -7.1062951 11.829562 4278255488
-75.478035 -7.2017555 11.806762 4278255488
-75.384109 -7.19348 11.87955 4278255488
-75.390327 -7.2889557 11.856753 4278255488
-75.396553 -7.3844581 11.833953 4278255488
-75.402779 -7.4799867 11.811141 4278255488
-75.409012 -7.5755415 11.788329 4278255488
-75.415237 -7.671123 11.765506 4278255488
-75.321259 -7.662796 11.838344 4278255488
-75.327477 -7.7583928 11.815528 4278255488
-75.333694 -7.8540168 11.792705 4278255488
-75.33992 -7.9496665 11.769877 4278255488
-75.346146 -8.0453424 11.747043 4278255488
-75.252129 -8.0369749 11.819915 4278255488
-75.258339 -8.1326675 11.797088 4278255488
-75.264549 -8.2283859 11.774253 4278255488
-75.270767 -8.324131 11.75141 4278255488
-75.276985 -8.4199028 11.728564 4278255488
-75.18293 -8.4114933 11.801471 4278255488
-75.18914 -8.5072813 11.778628 4278255488
-75.195343 -8.6030951 11.755782 4278255488
-75.201553 -8.6989355 11.732928 4278255488
-75.207764 -8.7948017 11.710067 4278255488
-75.113678 -8.7863522 11.783008 4278255488
-75.119873 -8.8822346 11.760154 4278255488
-75.126076 -8.9781437 11.737292 4278255488
-75.132271 -9.0740795 11.714427 4278255488
-75.138474 -9.170042 11.691554 4278255488
-75.044357 -9.1615505 11.764529 4278255488
-75.050545 -9.2575293 11.741664 4278255488
-75.05674 -9.3535337 11.718791 4278255488
-75.062935 -9.4495649 11.69591 4278255488
-74.968788 -9.4410439 11.768909 4278255488
-74.974968 -9.5370903 11.746036 4278255488
-74.981155 -9.6331644 11.723155 4278255488
-74.987343 -9.7292643 11.700271 4278255488
-74.893173 -9.7207127 11.773292 4278255488
-74.899345 -9.8168287 11.750411 4278255488
-74.905525 -9.9129715 11.727523 4278255488
-74.911705 -10.009141 11.704631 4278255488
-74.817513 -10.000558 11.777675 4278255488
-74.823677 -10.096744 11.754786 4278255488
-74.829842 -10.192956 11.731894 4278255488
-74.735649 -10.184353 11.80495 4278255488
-74.741806 -10.280581 11.782062 4278255488
-74.747963 -10.376836 11.75917 4278255488
-74.653755 -10.368214 11.832232 4278255488
-74.659897 -10.464483 11.809344 4278255488
-74.666046 -10.560781 11.786452 4278255488
-74.571831 -10.552138 11.859527 4278255488
-74.577965 -10.648452 11.836638 4278255488
-74.584099 -10.744791 11.813746 4278255488
-74.489876 -10.73613 11.886828 4278255488
-74.496002 -10.832485 11.86394 4278255488
-74.502129 -10.928867 11.841048 4278255488
-74.407898 -10.920186 11.914142 4278255488
-74.414009 -11.016583 11.891253 4278255488
-74.319786 -11.007894 11.964347 4278255488
-74.32589 -11.104307 11.941466 4278255488
-74.331993 -11.200748 11.918578 4278255488
-74.237755 -11.192038 11.991679 4278255488
-74.243851 -11.288494 11.968799 4278255488
-74.249939 -11.384977 11.94591 4278255488
-74.155701 -11.376247 12.019023 4278255488
-74.161781 -11.472747 11.996139 4278255488
-74.067543 -11.464007 12.069251 4278255488
-74.073608 -11.560522 12.046374 4278255488
-74.079681 -11.657064 12.023494 4278255488
-73.985435 -11.648305 12.096614 4278255488
-73.991493 -11.744864 12.073737 4278255488
-73.997551 -11.841448 12.050853 4278255488
-74.003616 -11.93806 12.027965 4278255488
-73.909348 -11.92927 12.101108 4278255488
-73.915398 -12.025897 12.078227 4278255488
-73.921448 -12.122552 12.055335 4278255488
-73.927505 -12.219233 12.032439 4278255488
-73.833214 -12.210412 12.105605 4278255488
-73.839256 -12.307109 12.082717 4278255488
-73.845299 -12.403833 12.059817 4278255488
-73.851341 -12.500585 12.036918 4278255488
-73.857391 -12.597362 12.014007 4278255488
-73.863441 -12.694167 11.991092 4278255488
-73.869492 -12.790998 11.968169 4278255488
-73.875542 -12.887856 11.945239 4278255488
-73.881599 -12.984742 11.922305 4278255488
-73.787216 -12.975836 11.995559 4278255488
-73.793259 -13.072738 11.972629 4278255488
-73.799301 -13.169665 11.949695 4278255488
-73.805344 -13.266621 11.926753 4278255488
-73.811394 -13.363603 11.903808 4278255488
-73.817444 -13.460612 11.880851 4278255488
-73.823494 -13.557649 11.85789 4278255488
-73.729042 -13.548678 11.931205 4278255488
-73.735085 -13.645731 11.908248 4278255488
-73.741119 -13.742809 11.885287 4278255488
-73.747162 -13.839916 11.862319 4278255488
-73.753204 -13.937049 11.839347 4278255488
-73.759254 -14.034209 11.816367 4278255488
-73.765297 -14.131396 11.79338 4278255488
-73.670792 -14.122362 11.866752 4278255488
-73.676826 -14.219565 11.843772 4278255488
-73.682861 -14.316796 11.820785 4278255488
-73.688896 -14.414054 11.797793 4278255488
-73.694939 -14.511338 11.774795 4278255488
-73.700981 -14.60865 11.751788 4278255488
-73.707024 -14.705989 11.728774 4278255488
-73.713066 -14.803354 11.705756 4278255488
-73.813736 -14.909869 11.60926 4278255488
-73.719109 -14.900747 11.682731 4278255488
-73.819794 -15.0073 11.586215 4278255488
-73.725159 -14.998167 11.659701 4278255488
-73.825859 -15.104758 11.563163 4278255488
-73.831924 -15.202244 11.540107 4278255488
-73.83799 -15.299757 11.517043 4278255488
-73.844055 -15.397296 11.493976 4278255488
-73.850128 -15.494864 11.470897 4278255488
-73.856201 -15.592458 11.447814 4278255488
-73.957024 -15.699291 11.351138 4278255488
-73.862274 -15.690079 11.424727 4278255488
-73.963112 -15.79695 11.328029 4278255488
-73.9692 -15.894637 11.304915 4278255488
-73.975296 -15.992352 11.281795 4278255488
-73.981392 -16.090094 11.258666 4278255488
-73.987488 -16.187862 11.235534 4278255488
-74.088432 -16.294937 11.138713 4278255488
-73.993584 -16.285658 11.212394 4278255488
-74.094551 -16.392773 11.115554 4278255488
-74.100662 -16.490635 11.092391 4278255488
-74.106781 -16.588524 11.069217 4278255488
-74.1129 -16.68644 11.046039 4278255488
-74.213959 -16.79372 10.949096 4278255488
-74.119019 -16.784384 11.022853 4278255488
-74.220093 -16.891703 10.925891 4278255488
-74.125137 -16.882355 10.99966 4278255488
-74.226227 -16.989714 10.902682 4278255488
-74.232368 -17.087749 10.879462 4278255488
-74.23851 -17.185814 10.856238 4278255488
-74.339684 -17.293301 10.759177 4278255488
-74.244652 -17.283907 10.833011 4278255488
-74.34584 -17.391432 10.735927 4278255488
-74.351997 -17.48959 10.712668 4278255488
-74.358162 -17.587774 10.689406 4278255488
-74.364326 -17.685987 10.666137 4278255488
-74.465607 -17.793682 10.56895 4278255488
-74.370491 -17.784227 10.642863 4278255488
-74.471786 -17.89196 10.545657 4278255488
-74.477966 -17.990267 10.522353 4278255488
-74.484154 -18.0886 10.499045 4278255488
-74.585533 -18.196463 10.401755 4278255488
-74.490341 -18.186962 10.475734 4278255488
-74.591728 -18.294863 10.378421 4278255488
-74.597931 -18.39329 10.355083 4278255488
-74.604141 -18.491745 10.331733 4278255488
-74.705612 -18.599775 10.234336 4278255488
-74.711838 -18.698298 10.210963 4278255488
-74.718063 -18.796846 10.187587 4278255488
-74.724289 -18.895424 10.164199 4278255488
-74.730515 -18.994028 10.140807 4278255488
-74.8321 -19.102266 10.043288 4278255488
-74.73674 -19.092661 10.117408 4278255488
-74.838341 -19.200937 10.01987 4278255488
-74.844589 -19.299637 9.9964437 4278255488
-74.850838 -19.398363 9.9730139 4278255488
-74.857086 -19.497118 9.9495764 4278255488
-74.958786 -19.605564 9.8519316 4278255488
-74.863342 -19.5959 9.9261312 4278255488
-74.965057 -19.704384 9.8284674 4278255488
-74.971321 -19.803234 9.8049955 4278255488
-74.977592 -19.902109 9.7815199 4278255488
-74.983871 -20.001015 9.7580366 4278255488
-74.990143 -20.099947 9.7345457 4278255488
-74.996422 -20.198906 9.711051 4278255488
-75.098259 -20.30764 9.6132421 4278255488
-75.002701 -20.297894 9.6875448 4278255488
-75.104553 -20.406666 9.5897169 4278255488
-75.00898 -20.39691 9.6640387 4278255488
-75.110855 -20.50572 9.5661879 4278255488
-75.117149 -20.604803 9.5426512 4278255488
-75.219086 -20.713707 9.4447393 4278255488
-75.123451 -20.703915 9.5191107 4278255488
-75.225403 -20.812857 9.421176 4278255488
-75.23172 -20.912033 9.3976088 4278255488
-75.238037 -21.011238 9.3740339 4278255488
-75.340073 -21.120312 9.2760115 4278255488
-75.244362 -21.110472 9.3504515 4278255488
-75.346413 -21.219585 9.2524137 4278255488
-75.352753 -21.318886 9.2288046 4278255488
-75.359093 -21.418215 9.2051878 4278255488
-75.365433 -21.51757 9.1815672 4278255488
-75.371773 -21.616955 9.157939 4278255488
-75.473938 -21.726278 9.0597754 4278255488
-75.37812 -21.716368 9.1343069 4278255488
-75.480301 -21.825729 9.0361204 4278255488
-75.486664 -21.925209 9.0124617 4278255488
-75.493027 -22.024717 8.9887915 4278255488
-75.499397 -22.124254 8.9651213 4278255488
-75.505768 -22.223818 8.9414396 4278255488
-75.608055 -22.333391 8.8431273 4278255488
-75.512138 -22.32341 8.9177504 4278255488
-75.614449 -22.433023 8.8194227 4278255488
-75.620834 -22.532682 8.7957067 4278255488
-75.62722 -22.63237 8.771987 4278255488
-75.633614 -22.732086 8.7482595 4278255488
-75.736023 -22.841871 8.6498251 4278255488
-75.640007 -22.831831 8.7245283 4278255488
-75.742432 -22.941656 8.626071 4278255488
-75.74884 -23.041468 8.6023092 4278255488
-75.755257 -23.141308 8.5785437 4278255488
-75.761673 -23.241175 8.5547705 4278255488
-75.768089 -23.341072 8.5309896 4278255488
-75.870621 -23.451109 8.4324064 4278255488
-75.774506 -23.440996 8.5072012 4278255488
-75.87706 -23.551073 8.4085989 4278255488
-75.78093 -23.540949 8.4834089 4278255488
-75.883492 -23.651066 8.3847876 4278255488
-75.889931 -23.751087 8.3609686 4278255488
-75.896378 -23.851135 8.337142 4278255488
-75.902817 -23.951214 8.3133078 4278255488
-76.005486 -24.061502 8.2145796 4278255488
-75.909264 -24.051319 8.2894659 4278255488
-76.01194 -24.161648 8.1907187 4278255488
-75.915703 -24.151453 8.2656202 4278255488
-76.018402 -24.261822 8.1668501 4278255488
-76.024864 -24.362024 8.1429777 4278255488
-76.127632 -24.472486 8.0441427 4278255488
-76.031334 -24.462255 8.1190977 4278255488
-76.134109 -24.572758 8.0202398 4278255488
-76.037804 -24.562513 8.0952101 4278255488
-76.140594 -24.673058 7.9963331 4278255488
-76.147079 -24.773384 7.9724226 4278255488
-76.153572 -24.873739 7.9485006 4278255488
-76.256447 -24.984417 7.8495359 4278255488
-76.160057 -24.974123 7.9245749 4278255488
-76.262955 -25.084841 7.8255911 4278255488
-76.16655 -25.074537 7.9006414 4278255488
-76.269463 -25.185293 7.8016386 4278255488
-76.27597 -25.285774 7.7776747 4278255488
-76.282478 -25.386284 7.7537107 4278255488
-76.385475 -25.497175 7.6546164 4278255488
-76.288994 -25.486822 7.7297354 4278255488
-76.391998 -25.597754 7.6306257 4278255488
-76.295502 -25.587389 7.7057562 4278255488
-76.398529 -25.69836 7.6066236 4278255488
-76.40506 -25.798994 7.5826178 4278255488
-76.411598 -25.899658 7.5586004 4278255488
-76.418137 -26.000351 7.5345793 4278255488
-76.521255 -26.111496 7.4353399 4278255488
-76.424667 -26.10107 7.5105543 4278255488
-76.527809 -26.212257 7.4112921 4278255488
-76.53437 -26.313047 7.3872404 4278255488
-76.540924 -26.413866 7.3631773 4278255488
-76.547485 -26.514711 7.3391104 4278255488
-76.554047 -26.615587 7.3150358 4278255488
-76.657303 -26.72699 7.2156477 4278255488
-76.560608 -26.716492 7.2909536 4278255488
-76.663879 -26.827934 7.1915464 4278255488
-76.670464 -26.928907 7.1674376 4278255488
-76.677048 -27.029909 7.143321 4278255488
-76.780403 -27.141487 7.0438261 4278255488
-76.683632 -27.130939 7.1191969 4278255488
-76.787003 -27.242558 7.0196829 4278255488
-76.79361 -27.343657 6.995532 4278255488
-76.800209 -27.444786 6.9713774 4278255488
-76.806816 -27.545942 6.9472151 4278255488
-76.910286 -27.657738 6.8475904 4278255488
-76.813431 -27.647129 6.9230452 4278255488
-76.916916 -27.758965 6.8234015 4278255488
-76.923546 -27.86022 6.799201 4278255488
-76.930168 -27.961504 6.7750006 4278255488
-77.033745 -28.073475 6.6752653 4278255488
-76.936806 -28.062817 6.7507887 4278255488
-77.04039 -28.174828 6.6510344 4278255488
-76.943436 -28.164158 6.7265692 4278255488
-77.047035 -28.276211 6.6267996 4278255488
-77.053688 -28.377621 6.6025534 4278255488
-77.060341 -28.479061 6.5783033 4278255488
-77.066994 -28.58053 6.5540419 4278255488
-77.073654 -28.682028 6.5297766 4278255488
-77.177376 -28.794298 6.4298735 4278255488
-77.080315 -28.783554 6.5055075 4278255488
-77.184052 -28.895866 6.4055815 4278255488
-77.086975 -28.885111 6.4812269 4278255488
-77.190727 -28.997463 6.3812819 4278255488
-77.197403 -29.099089 6.3569784 4278255488
-77.204086 -29.200743 6.3326635 4278255488
-77.307922 -29.313231 6.2326307 4278255488
-77.21077 -29.302425 6.3083448 4278255488
-77.314621 -29.414955 6.208293 4278255488
-77.217453 -29.404139 6.2840185 4278255488
-77.32132 -29.516708 6.1839437 4278255488
-77.328026 -29.61849 6.1595907 4278255488
-77.334724 -29.720303 6.1352301 4278255488
-77.438683 -29.83301 6.0350676 4278255488
-77.341438 -29.822144 6.1108618 4278255488
-77.445404 -29.934893 6.0106802 4278255488
-77.452126 -30.036802 5.9862852 4278255488
-77.458855 -30.138742 5.9618826 4278255488
-77.562912 -30.251629 5.8616095 4278255488
-77.465584 -30.240709 5.9374723 4278255488
-77.569656 -30.353638 5.8371801 4278255488
-77.472313 -30.342709 5.9130583 4278255488
-77.576401 -30.455677 5.8127432 4278255488
-77.583153 -30.557745 5.7882986 4278255488
-77.589905 -30.659842 5.7638502 4278255488
-77.694069 -30.772947 5.6634474 4278255488
-77.596657 -30.761967 5.7393942 4278255488
-77.700844 -30.875114 5.6389685 4278255488
-77.707611 -30.977312 5.6144857 4278255488
-77.714386 -31.079538 5.5899916 4278255488
-77.721161 -31.181793 5.5654936 4278255488
-77.727943 -31.284077 5.540988 4278255488
-77.832245 -31.397446 5.4404364 4278255488
-77.734718 -31.386391 5.5164747 4278255488
-77.839043 -31.4998 5.4159002 4278255488
-77.741501 -31.488733 5.4919577 4278255488
-77.84584 -31.602184 5.3913603 4278255488
-77.852638 -31.704597 5.3668165 4278255488
-77.957039 -31.818146 5.2661505 4278255488
-77.859436 -31.807041 5.3422613 4278255488
-77.96386 -31.92063 5.2415762 4278255488
-77.97068 -32.023144 5.2169943 4278255488
-77.977501 -32.125687 5.1924047 4278255488
-78.082008 -32.239414 5.0916319 4278255488
-77.984329 -32.22826 5.1678114 4278255488
-78.088852 -32.34203 5.0670118 4278255488
-78.095695 -32.444672 5.0423918 4278255488
-78.102539 -32.547344 5.0177603 4278255488
-78.207146 -32.661255 4.916873 4278255488
-78.109383 -32.650047 4.993125 4278255488
-78.214012 -32.763996 4.8922148 4278255488
-78.220871 -32.866772 4.8675528 4278255488
-78.227745 -32.969574 4.8428793 4278255488
-78.332451 -33.083664 4.7418814 4278255488
-78.234612 -33.072403 4.818202 4278255488
-78.33934 -33.186535 4.7171812 4278255488
-78.241486 -33.175266 4.7935133 4278255488
-78.346222 -33.28944 4.6924772 4278255488
-78.353119 -33.392372 4.6677618 4278255488
-78.360008 -33.495335 4.6430426 4278255488
-78.366898 -33.598328 4.6183119 4278255488
-78.471748 -33.712681 4.5171614 4278255488
-78.373795 -33.701347 4.5935774 4278255488
-78.478661 -33.815742 4.4924078 4278255488
-78.380692 -33.804398 4.5688353 4278255488
-78.485573 -33.918835 4.4676428 4278255488
-78.492493 -34.021957 4.442874 4278255488
-78.499405 -34.125111 4.4180975 4278255488
-78.506332 -34.228291 4.3933134 4278255488
-78.611305 -34.342911 4.2920103 4278255488
-78.513252 -34.331501 4.3685217 4278255488
-78.618248 -34.446167 4.2671957 4278255488
-78.520172 -34.434742 4.3437223 4278255488
-78.625191 -34.549446 4.2423773 4278255488
-78.632133 -34.65276 4.2175512 4278255488
-78.639076 -34.756104 4.1927176 4278255488
-78.646027 -34.859474 4.1678801 4278255488
-78.652977 -34.962875 4.1430311 4278255488
-78.75811 -35.077805 4.0415525 4278255488
-78.659927 -35.066307 4.1181784 4278255488
-78.765076 -35.181278 4.0166769 4278255488
-78.666878 -35.169765 4.0933142 4278255488
-78.772049 -35.284779 3.9917974 4278255488
-78.779015 -35.388313 3.9669065 4278255488
-78.785995 -35.491875 3.942008 4278255488
-78.891243 -35.607029 3.8403997 4278255488
-78.792969 -35.595467 3.9171057 4278255488
-78.898239 -35.710667 3.8154745 4278255488
-78.79995 -35.699089 3.8921919 4278255488
-78.905235 -35.814331 3.7905416 4278255488
-78.912231 -35.918022 3.7656012 4278255488
-78.919228 -36.021748 3.7406569 4278255488
-78.926231 -36.1255 3.7157011 4278255488
-79.031616 -36.240925 3.6139364 4278255488
-78.933235 -36.229286 3.6907415 4278255488
-79.038635 -36.344749 3.588954 4278255488
-79.045662 -36.448605 3.5639677 4278255488
-79.052689 -36.552494 3.53897 4278255488
-79.059708 -36.656406 3.5139685 4278255488
-79.165222 -36.772057 3.4120665 4278255488
-79.066742 -36.760353 3.4889555 4278255488
-79.172264 -36.876045 3.3870382 4278255488
-79.179314 -36.980064 3.3619986 4278255488
-79.186363 -37.084114 3.3369513 4278255488
-79.291969 -37.199947 3.2349386 4278255488
-79.193413 -37.18819 3.3119001 4278255488
-79.299042 -37.304066 3.2098646 4278255488
-79.200462 -37.292297 3.2868376 4278255488
-79.306114 -37.408218 3.1847868 4278255488
-79.313187 -37.512398 3.1596975 4278255488
-79.320259 -37.616611 3.1346006 4278255488
-79.425987 -37.732674 3.0324545 4278255488
-79.327332 -37.720852 3.1094999 4278255488
-79.433083 -37.836956 3.0073309 4278255488
-79.440178 -37.941269 2.9821997 4278255488
-79.447273 -38.045612 2.9570608 4278255488
-79.454376 -38.149986 2.9319143 4278255488
-79.560226 -38.266277 2.8296347 4278255488
-79.461479 -38.254391 2.906764 4278255488
-79.567345 -38.370724 2.8044615 4278255488
-79.574471 -38.475201 2.7792807 4278255488
-79.581589 -38.579708 2.7540922 4278255488
-79.588715 -38.684246 2.7288961 4278255488
-79.694687 -38.800766 2.6264791 4278255488
-79.59584 -38.788815 2.7036924 4278255488
-79.701836 -38.905376 2.6012526 4278255488
-79.708977 -39.010017 2.5760221 4278255488
-79.716125 -39.114689 2.5507841 4278255488
-79.723274 -39.219391 2.5255384 4278255488
-79.730431 -39.32412 2.5002851 4278255488
-79.737587 -39.428883 2.4750242 4278255488
-79.744743 -39.533676 2.4497557 4278255488
-79.7519 -39.638496 2.4244833 4278255488
-79.759056 -39.743351 2.3991995 4278255488
-79.667221 -39.836155 2.4512625 4278255488
-79.674377 -39.941059 2.4259787 4278255488
-79.575378 -39.92897 2.5033255 4278255488
-79.41301 -40.429573 2.531661 4278255488
-79.321106 -40.522461 2.5837584 4278255488
-79.222107 -40.510307 2.6611242 4278255488
-79.229195 -40.615356 2.6358595 4278255488
-79.130203 -40.603191 2.7132254 4278255488
-79.137276 -40.70826 2.6879683 4278255488
-79.038292 -40.696087 2.7653303 4278255488
-79.144356 -40.813358 2.6626997 4278255488
-79.045357 -40.801174 2.740077 4278255488
-78.946373 -40.78899 2.8174391 4278255488
-78.953423 -40.894093 2.7921934 4278255488
-78.854439 -40.881897 2.8695517 4278255488
-78.861481 -40.987019 2.8443136 4278255488
-78.762505 -40.974815 2.9216719 4278255488
-78.769531 -41.079952 2.8964376 4278255488
-78.670563 -41.067738 2.9737921 4278255488
-78.571617 -41.055527 3.0511312 4278255488
-78.578613 -41.160671 3.0259199 4278255488
-78.479668 -41.148449 3.1032553 4278255488
-78.486656 -41.253609 3.0780478 4278255488
-78.196846 -41.322071 3.284831 4278255488
-78.203789 -41.427258 3.2596502 4278255488
-78.104889 -41.415009 3.3369665 4278255488
-78.111816 -41.52021 3.3117933 4278255488
-78.012917 -41.50795 3.389102 4278255488
-78.019836 -41.613171 3.3639364 4278255488
-77.920937 -41.600899 3.4412451 4278255488
-77.822067 -41.588631 3.5185385 4278255488
-77.723221 -41.576363 3.5958166 4278255488
-77.828957 -41.693855 3.493392 4278255488
-77.730087 -41.681576 3.5706854 4278255488
-77.6381 -41.774532 3.6228323 4278255488
-77.539261 -41.762245 3.7001066 4278255488
-77.440445 -41.749962 3.7773619 4278255488
-77.644966 -41.879791 3.5977011 4278255488
-77.546112 -41.867493 3.6749868 4278255488
-77.447273 -41.855198 3.7522573 4278255488
-77.348457 -41.842903 3.8295088 4278255488
-77.355278 -41.948154 3.8044119 4278255488
-77.25647 -41.935852 3.8816633 4278255488
-77.263275 -42.041122 3.8565702 4278255488
-77.164474 -42.028809 3.9338217 4278255488
-77.065689 -42.016499 4.011054 4278255488
-77.171265 -42.134098 3.9087362 4278255488
-77.072464 -42.121773 3.98598 4278255488
-76.973686 -42.109451 4.0632124 4278255488
-76.980453 -42.214745 4.038146 4278255488
-76.881683 -42.202412 4.1153746 4278255488
-76.888435 -42.307724 4.0903158 4278255488
-76.789665 -42.295383 4.1675444 4278255488
-76.690918 -42.283043 4.2447538 4278255488
-76.697639 -42.388359 4.2197142 4278255488
-76.5989 -42.376011 4.2969236 4278255488
-76.605614 -42.481342 4.2718916 4278255488
-76.506882 -42.468983 4.3490973 4278255488
-76.408165 -42.456627 4.4262877 4278255488
-76.414848 -42.561966 4.4012747 4278255488
-76.316139 -42.549599 4.4784613 4278255488
-76.322807 -42.654957 4.4534597 4278255488
-76.224106 -42.642578 4.5306425 4278255488
-76.12542 -42.630203 4.6078138 4278255488
-76.132065 -42.735565 4.5828276 4278255488
-76.033386 -42.723179 4.6599951 4278255488
-75.934731 -42.710796 4.7371435 4278255488
-76.040016 -42.82856 4.6350164 4278255488
-75.941345 -42.816162 4.7121801 4278255488
-75.84269 -42.803772 4.7893286 4278255488
-75.849289 -42.909157 4.7643728 4278255488
-75.750648 -42.896751 4.8415174 4278255488
-75.757233 -43.002155 4.8165655 4278255488
-75.658592 -42.989742 4.8937101 4278255488
-75.559975 -42.977329 4.9708395 4278255488
-75.566536 -43.082737 4.9459066 4278255488
-75.467918 -43.070316 5.0230322 4278255488
-75.474464 -43.175743 4.998107 4278255488
-75.375862 -43.163311 5.0752325 4278255488
-75.277275 -43.150883 5.152339 4278255488
-75.283791 -43.256313 5.1274328 4278255488
-75.185204 -43.243874 5.2045393 4278255488
-75.191711 -43.349323 5.1796408 4278255488
-75.093132 -43.336872 5.2567434 4278255488
-74.994583 -43.324429 5.3338308 4278255488
-75.001053 -43.429882 5.3089552 4278255488
-74.902504 -43.417423 5.3860388 4278255488
-74.908966 -43.522896 5.361167 4278255488
-74.810425 -43.510429 5.4382505 4278255488
-74.718338 -43.603439 5.4904661 4278255488
-74.61982 -43.590965 5.5675306 4278255488
-74.626236 -43.696461 5.5426855 4278255488
-74.527725 -43.683975 5.6197462 4278255488
-74.429237 -43.671494 5.6967916 4278255488
-74.435631 -43.776993 5.6719694 4278255488
-74.337143 -43.7645 5.749011 4278255488
-74.343521 -43.870018 5.7241926 4278255488
-74.245041 -43.857513 5.8012342 4278255488
-74.146584 -43.845016 5.8782606 4278255488
-74.152931 -43.950539 5.8534613 4278255488
-74.054482 -43.938026 5.9304838 4278255488
-74.060814 -44.043568 5.9056959 4278255488
-73.962372 -44.031048 5.9827147 4278255488
-73.863937 -44.018528 6.0597181 4278255488
-73.968697 -44.136604 5.9579306 4278255488
-73.870255 -44.124073 6.0349493 4278255488
-73.771828 -44.111546 6.1119528 4278255488
-73.77813 -44.21711 6.0871878 4278255488
-73.67971 -44.204571 6.1641874 4278255488
-73.685997 -44.31015 6.13943 4278255488
-73.587578 -44.297604 6.2164297 4278255488
-73.593857 -44.403198 6.19168 4278255488
-73.495445 -44.39064 6.268672 4278255488
-73.501709 -44.496258 6.2439299 4278255488
-73.403305 -44.483688 6.3209219 4278255488
-73.304924 -44.471123 6.3978987 4278255488
-73.311157 -44.576744 6.3731756 4278255488
-73.212784 -44.564167 6.4501486 4278255488
-73.219002 -44.669807 6.4254332 4278255488
-73.120628 -44.657219 6.5024061 4278255488
-73.022278 -44.644634 6.57936 4278255488
-73.028473 -44.750278 6.5546637 4278255488
-72.93013 -44.737686 6.6316175 4278255488
-72.831802 -44.725094 6.7085562 4278255488
-72.936302 -44.843346 6.6069288 4278255488
-72.837967 -44.830742 6.6838789 4278255488
-72.844131 -44.93642 6.6591978 4278255488
-72.745796 -44.923809 6.7361479 4278255488
-72.751945 -45.029503 6.7114706 4278255488
-72.653625 -45.01688 6.7884169 4278255488
-72.555313 -45.004257 6.8653479 4278255488
-72.56144 -45.109959 6.8406897 4278255488
-72.463135 -45.097328 6.9176207 4278255488
-72.364861 -45.084698 6.9945326 4278255488
-72.370956 -45.190407 6.9698935 4278255488
-72.272682 -45.177765 7.0468054 4278255488
-72.278763 -45.283489 7.0221777 4278255488
-72.180489 -45.27084 7.0990858 4278255488
-72.082245 -45.258194 7.1759748 4278255488
-72.186562 -45.376583 7.0744619 4278255488
-72.088295 -45.363922 7.1513662 4278255488
-72.094353 -45.469681 7.12675 4278255488
-71.996094 -45.457012 7.2036543 4278255488
-71.621223 -45.723629 7.4374189 4278255488
-71.523018 -45.710934 7.5142851 4278255488
-70.853806 -45.939381 7.9784651 4278255488
-70.957794 -46.057915 7.8771696 4278255488
-70.85968 -46.045185 7.9539747 4278255488
-70.761581 -46.032459 8.0307684 4278255488
-70.767448 -46.138287 8.0062857 4278255488
-70.669357 -46.125549 8.0830755 4278255488
-70.675201 -46.231392 8.0586004 4278255488
-70.577118 -46.218647 8.1353865 4278255488
-70.479057 -46.205902 8.2121572 4278255488
-70.381012 -46.193161 8.288909 4278255488
-70.582954 -46.324509 8.1109152 4278255488
-70.484871 -46.311752 8.1877012 4278255488
-70.386818 -46.299 8.2644682 4278255488
-70.294571 -46.392101 8.3167868 4278255488
-70.196533 -46.379337 8.3935385 4278255488
-70.300362 -46.497982 8.292346 4278255488
-70.202316 -46.48521 8.3691092 4278255488
-70.104286 -46.472439 8.445857 4278255488
-70.208099 -46.59111 8.344676 4278255488
-70.110054 -46.578327 8.4214354 4278255488
-70.012032 -46.565544 8.4981794 4278255488
-70.017784 -46.671452 8.4737654 4278255488
-69.919769 -46.658661 8.5505095 4278255488
-69.925514 -46.764584 8.5260992 4278255488
-69.827499 -46.751781 8.6028433 4278255488
-69.833229 -46.857723 8.5784407 4278255488
-69.735222 -46.844913 8.6551771 4278255488
-69.637238 -46.832104 8.7319021 4278255488
-69.642937 -46.938049 8.7075186 4278255488
-69.54496 -46.925228 8.7842398 4278255488
-69.550644 -47.031193 8.7598639 4278255488
-69.452667 -47.018364 8.8365812 4278255488
-69.458344 -47.124348 8.8122129 4278255488
-69.360374 -47.111507 8.8889303 4278255488
-69.268074 -47.204659 8.9412794 4278255488
-69.170128 -47.191811 9.0179777 4278255488
-69.072212 -47.178963 9.0946569 4278255488
-69.175766 -47.297813 8.9936361 4278255488
-69.077827 -47.284958 9.0703306 4278255488
-68.979912 -47.272102 9.1470098 4278255488
-68.985512 -47.378113 9.1226873 4278255488
-68.887604 -47.365246 9.1993666 4278255488
-68.893196 -47.471275 9.1750517 4278255488
-68.795288 -47.458397 9.2517233 4278255488
-68.697403 -47.445526 9.3283834 4278255488
-68.702972 -47.551559 9.3040876 4278255488
-68.605087 -47.538673 9.380744 4278255488
-68.507233 -47.525795 9.4573851 4278255488
-68.610641 -47.644726 9.3564558 4278255488
-68.512764 -47.631832 9.4331121 4278255488
-68.414917 -47.618942 9.5097494 4278255488
-68.420433 -47.724998 9.4854803 4278255488
-68.322586 -47.712097 9.5621176 4278255488
-68.224762 -47.6992 9.6387358 4278255488
-68.230255 -47.80526 9.6144896 4278255488
-67.567513 -48.139145 10.053794 4278255488
-67.46978 -48.126202 10.130355 4278255488
-67.572914 -48.24527 10.029609 4278255488
-67.475159 -48.232315 10.106181 4278255488
-67.377426 -48.21936 10.182738 4278255488
-67.382797 -48.325489 10.158572 4278255488
-67.285072 -48.312531 10.235129 4278255488
-67.18737 -48.299568 10.311667 4278255488
-67.192711 -48.405704 10.28752 4278255488
-67.095009 -48.392735 10.364058 4278255488
-66.99733 -48.379768 10.440578 4278255488
-66.627846 -48.75246 10.650176 4278255488
-66.535454 -48.845654 10.702582 4278255488
-66.437828 -48.832638 10.779078 4278255488
-66.340218 -48.819626 10.855556 4278255488
-66.345436 -48.925827 10.831489 4278255488
-66.247826 -48.912804 10.907966 4278255488
-66.253036 -49.019024 10.883903 4278255488
-66.155434 -49.005993 10.960376 4278255488
-66.057854 -48.992962 11.036834 4278255488
-66.160629 -49.112228 10.936324 4278255488
-66.063034 -49.099186 11.012794 4278255488
-65.965462 -49.086147 11.089248 4278255488
-65.970627 -49.19239 11.065215 4278255488
-65.873055 -49.179337 11.141669 4278255488
-65.878212 -49.285599 11.11764 4278255488
-65.780647 -49.272537 11.194091 4278255488
-65.683105 -49.25948 11.270526 4278255488
-65.688232 -49.365746 11.24652 4278255488
-65.590691 -49.352676 11.322951 4278255488
-65.493179 -49.339611 11.399367 4278255488
-65.498276 -49.445881 11.375384 4278255488
-65.400764 -49.432804 11.451797 4278255488
-65.405846 -49.539093 11.427817 4278255488
-65.308342 -49.526009 11.50423 4278255488
-65.210854 -49.512924 11.580626 4278255488
-65.313408 -49.632313 11.480254 4278255488
-65.215912 -49.619217 11.556666 4278255488
-65.118431 -49.606125 11.633056 4278255488
-65.123474 -49.712433 11.609107 4278255488
-65.026001 -49.699329 11.685496 4278255488
-65.031029 -49.80566 11.661551 4278255488
-64.933563 -49.792545 11.737937 4278255488
-64.836113 -49.779434 11.814311 4278255488
-64.938576 -49.898891 11.714 4278255488
-64.841118 -49.885769 11.790385 4278255488
-64.743675 -49.872646 11.866755 4278255488
-64.748665 -49.978996 11.842837 4278255488
-64.651222 -49.965866 11.919204 4278255488
-64.55381 -49.952736 11.995555 4278255488
-64.558769 -50.059093 11.971656 4278255488
-64.461357 -50.045952 12.048007 4278255488
-64.368904 -50.139179 12.100463 4278255488
-64.271515 -50.12603 12.176795 4278255488
-64.174149 -50.112888 12.253108 4278255488
-64.276436 -50.23241 12.152919 4278255488
-64.179054 -50.219254 12.229251 4278255488
-64.086594 -50.312481 12.281711 4278255488
-63.989239 -50.299316 12.358024 4278255488
-63.994114 -50.40572 12.334178 4278255488
-63.896767 -50.392544 12.410487 4278255488
-63.799442 -50.379372 12.486777 4278255488
-63.804291 -50.485779 12.462951 4278255488
-63.70697 -50.472599 12.539245 4278255488
-63.609669 -50.459419 12.615516 4278255488
-63.614491 -50.56583 12.591712 4278255488
-63.517197 -50.552639 12.667983 4278255488
-63.522007 -50.659069 12.644187 4278255488
-63.424717 -50.64587 12.720454 4278255488
-63.327446 -50.632671 12.79671 4278255488
-63.33223 -50.739105 12.772929 4278255488
-63.234962 -50.725899 12.849181 4278255488
-63.239731 -50.832352 12.825412 4278255488
-63.142475 -50.819134 12.90166 4278255488
-63.045235 -50.805916 12.977893 4278255488
-63.049976 -50.912373 12.954143 4278255488
-62.952744 -50.899147 13.030372 4278255488
-62.860245 -50.99239 13.082854 4278255488
-62.767738 -51.085636 13.135345 4278255488
-62.670536 -51.072392 13.211555 4278255488
-62.675224 -51.17889 13.187839 4278255488
-62.57803 -51.165638 13.264045 4278255488
-62.582703 -51.272152 13.240333 4278255488
-62.2033 -51.432133 13.497725 4278255488
-62.106163 -51.418854 13.573894 4278255488
-62.110767 -51.525398 13.550231 4278255488
-62.013634 -51.512108 13.626399 4278255488
-61.916523 -51.498825 13.702548 4278255488
-62.018227 -51.618668 13.60274 4278255488
-61.921097 -51.60537 13.678905 4278255488
-61.823994 -51.592075 13.75505 4278255488
-61.828556 -51.698639 13.731414 4278255488
-61.731457 -51.685333 13.807559 4278255488
-61.634373 -51.672031 13.883693 4278255488
-61.736008 -51.791916 13.783927 4278255488
-61.638912 -51.778599 13.860072 4278255488
-61.541836 -51.765285 13.936202 4278255488
-61.54636 -51.871876 13.912589 4278255488
-61.449291 -51.858551 13.988715 4278255488
-61.4538 -51.965157 13.96511 4278255488
-61.356735 -51.951824 14.041236 4278255488
-61.361233 -52.058445 14.017638 4278255488
-61.264175 -52.045101 14.093757 4278255488
-61.167137 -52.031761 14.169864 4278255488
-61.171604 -52.13839 14.146285 4278255488
-61.074574 -52.125038 14.222388 4278255488
-60.977562 -52.111687 14.298476 4278255488
-60.982002 -52.218319 14.27492 4278255488
-60.884995 -52.20496 14.351005 4278255488
-60.889423 -52.311611 14.327453 4278255488
-60.792423 -52.298244 14.403537 4278255488
-60.796837 -52.404911 14.379989 4278255488
-60.699844 -52.391533 14.456069 4278255488
-60.602867 -52.378155 14.532134 4278255488
