# .PCD v0.7 - Point Cloud Data file format
VERSION 0.7
FIELDS x y z rgb
SIZE 4 4 4 4
TYPE F F F U
COUNT 1 1 1 1
WIDTH 1109
HEIGHT 1
VIEWPOINT 0 0 0 1 0 0 0
POINTS 1109
DATA ascii
-26.417849 18.303835 -33.421822 4278255488
-26.324539 18.310244 -33.349857 4278255488
-26.231249 18.31665 -33.277905 4278255488
-26.331903 18.218719 -33.372768 4278255488
-26.2386 18.225136 -33.300804 4278255488
-26.145313 18.231552 -33.228855 4278255488
-26.245951 18.133596 -33.323711 4278255488
-26.152653 18.140022 -33.251751 4278255488
-26.059372 18.146446 -33.179806 4278255488
-26.159992 18.048468 -33.274651 4278255488
-26.066698 18.054901 -33.202694 4278255488
-25.973423 18.061333 -33.130749 4278255488
-25.980738 17.969774 -33.153633 4278255488
-25.887466 17.976215 -33.081688 4278255488
-25.894772 17.88464 -33.104568 4278255488
-25.801504 17.891088 -33.032627 4278255488
-25.808798 17.7995 -33.055496 4278255488
-25.715536 17.805958 -32.983559 4278255488
-25.722816 17.714354 -33.006424 4278255488
-25.62956 17.720819 -32.93449 4278255488
-25.636831 17.6292 -32.957348 4278255488
-25.543579 17.635675 -32.885414 4278255488
-25.550837 17.544039 -32.908268 4278255488
-25.45759 17.550524 -32.836334 4278255488
-25.464838 17.458874 -32.859184 4278255488
-25.371595 17.465366 -32.787254 4278255488
-25.37883 17.373701 -32.810097 4278255488
-25.285593 17.380201 -32.738167 4278255488
-25.292818 17.288521 -32.761005 4278255488
-25.199585 17.295031 -32.689079 4278255488
-25.206799 17.203335 -32.71191 4278255488
-25.113571 17.209852 -32.639984 4278255488
-25.120771 17.118143 -32.662811 4278255488
-25.02755 17.124668 -32.590889 4278255488
-25.034739 17.032944 -32.613708 4278255488
-24.941521 17.039478 -32.541786 4278255488
-24.9487 16.947739 -32.564602 4278255488
-24.855486 16.954281 -32.492683 4278255488
-24.862654 16.862526 -32.515491 4278255488
-24.769445 16.869078 -32.443573 4278255488
-24.776602 16.777308 -32.466377 4278255488
-24.683397 16.783869 -32.394463 4278255488
-24.690542 16.692081 -32.417259 4278255488
-24.597343 16.698652 -32.345345 4278255488
-24.604477 16.606852 -32.368137 4278255488
-24.511282 16.613428 -32.296227 4278255488
-24.518404 16.521612 -32.319012 4278255488
-24.425215 16.5282 -32.247101 4278255488
-24.432325 16.436369 -32.269882 4278255488
-24.33914 16.442963 -32.197975 4278255488
-24.245975 16.449556 -32.126083 4278255488
-24.346239 16.351116 -32.220749 4278255488
-24.253059 16.357721 -32.148846 4278255488
-24.159899 16.364323 -32.076954 4278255488
-24.260147 16.26586 -32.171612 4278255488
-24.166973 16.272472 -32.099709 4278255488
-24.174049 16.180595 -32.122471 4278255488
-24.080879 16.187216 -32.050571 4278255488
-23.987728 16.193836 -31.978689 4278255488
-24.087944 16.095324 -32.073326 4278255488
-23.994778 16.101954 -32.001431 4278255488
-23.901632 16.108582 -31.929548 4278255488
-24.001831 16.010046 -32.024178 4278255488
-23.90867 16.016685 -31.952284 4278255488
-23.815529 16.023321 -31.880404 4278255488
-23.915712 15.924763 -31.975031 4278255488
-23.822557 15.93141 -31.903135 4278255488
-23.729422 15.938055 -31.831255 4278255488
-23.829588 15.839474 -31.925875 4278255488
-23.736437 15.846128 -31.853983 4278255488
-23.643305 15.852781 -31.782106 4278255488
-23.743456 15.754175 -31.876715 4278255488
-23.650311 15.760839 -31.804823 4278255488
-23.557184 15.767502 -31.73295 4278255488
-23.657318 15.668873 -31.827551 4278255488
-23.564177 15.675545 -31.755663 4278255488
-23.571173 15.583563 -31.778383 4278255488
-23.478037 15.590244 -31.706499 4278255488
-23.485022 15.498245 -31.729216 4278255488
-23.391891 15.504936 -31.657331 4278255488
-23.398863 15.412924 -31.68004 4278255488
-23.405838 15.320885 -31.702753 4278255488
-23.312698 15.327593 -31.630861 4278255488
-23.319662 15.23554 -31.65357 4278255488
-23.226528 15.242258 -31.581678 4278255488
-23.233479 15.15019 -31.604383 4278255488
-23.240433 15.058096 -31.627092 4278255488
-23.147289 15.064833 -31.555189 4278255488
-23.154232 14.972723 -31.577894 4278255488
-23.161177 14.88059 -31.600607 4278255488
-23.168123 14.788433 -31.62332 4278255488
-23.17507 14.696249 -31.646044 4278255488
-23.18202 14.604042 -31.668772 4278255488
-23.188972 14.511808 -31.691507 4278255488
-23.095768 14.5186 -31.619547 4278255488
-23.195927 14.41955 -31.714247 4278255488
-23.102707 14.426353 -31.642275 4278255488
-23.202881 14.327267 -31.736994 4278255488
-23.10965 14.33408 -31.66501 4278255488
-23.116594 14.241781 -31.687754 4278255488
-23.123539 14.149456 -31.710501 4278255488
-23.130487 14.057108 -31.733255 4278255488
-23.137438 13.964733 -31.756014 4278255488
-23.144388 13.872334 -31.77878 4278255488
-23.051107 13.879196 -31.706751 4278255488
-23.151342 13.779909 -31.801554 4278255488
-23.058048 13.786781 -31.729509 4278255488
-23.064991 13.694342 -31.752279 4278255488
-23.071934 13.601877 -31.775049 4278255488
-23.07888 13.509386 -31.797831 4278255488
-22.985565 13.516287 -31.725767 4278255488
-23.085829 13.41687 -31.820616 4278255488
-22.992498 13.42378 -31.748541 4278255488
-22.999435 13.331251 -31.771318 4278255488
-23.006372 13.238695 -31.794104 4278255488
-22.913036 13.245625 -31.722017 4278255488
-22.919962 13.153053 -31.744799 4278255488
-22.926891 13.060457 -31.767584 4278255488
-22.933821 12.967834 -31.790377 4278255488
-22.840462 12.974792 -31.718267 4278255488
-22.84738 12.882156 -31.741053 4278255488
-22.854301 12.789494 -31.763845 4278255488
-22.861223 12.696806 -31.786646 4278255488
-22.767841 12.703793 -31.714518 4278255488
-22.774754 12.611091 -31.73731 4278255488
-22.781666 12.518362 -31.760107 4278255488
-22.688276 12.525368 -31.687967 4278255488
-22.695177 12.432624 -31.71076 4278255488
-22.70208 12.339856 -31.733561 4278255488
-22.608683 12.34688 -31.661409 4278255488
-22.615574 12.254096 -31.684206 4278255488
-22.622467 12.161287 -31.707003 4278255488
-22.52906 12.168329 -31.634844 4278255488
-22.535942 12.075505 -31.657637 4278255488
-22.542826 11.982656 -31.680437 4278255488
-22.449411 11.989717 -31.608271 4278255488
-22.456284 11.896852 -31.631063 4278255488
-22.463158 11.803962 -31.653864 4278255488
-22.369734 11.811042 -31.581682 4278255488
-22.276327 11.81812 -31.50952 4278255488
-22.376596 11.718136 -31.604479 4278255488
-22.283176 11.725224 -31.532301 4278255488
-22.189775 11.732312 -31.460138 4278255488
-22.290028 11.632304 -31.55509 4278255488
-22.196613 11.639401 -31.482916 4278255488
-22.203453 11.546465 -31.505697 4278255488
-22.210295 11.453504 -31.528486 4278255488
-22.116873 11.46062 -31.456301 4278255488
-22.123703 11.367642 -31.479082 4278255488
-22.130533 11.27464 -31.501875 4278255488
-22.037102 11.281775 -31.429678 4278255488
-22.043922 11.188758 -31.452459 4278255488
-22.050745 11.095715 -31.475252 4278255488
-21.964115 11.00981 -31.425829 4278255488
-21.970928 10.916727 -31.448618 4278255488
-21.977743 10.823618 -31.471415 4278255488
-21.884281 10.8308 -31.399187 4278255488
-21.891083 10.737676 -31.42198 4278255488
-21.897888 10.644526 -31.444777 4278255488
-21.904694 10.551351 -31.467577 4278255488
-21.911503 10.45815 -31.490389 4278255488
-21.818005 10.465371 -31.418127 4278255488
-21.824802 10.372155 -31.440928 4278255488
-21.8316 10.278913 -31.463739 4278255488
-21.8384 10.185646 -31.486555 4278255488
-21.845203 10.092354 -31.509375 4278255488
-21.852007 9.9990358 -31.532206 4278255488
-21.758461 10.006307 -31.459894 4278255488
-21.858812 9.9056921 -31.555037 4278255488
-21.765253 9.9129734 -31.482718 4278255488
-21.865622 9.8123226 -31.577879 4278255488
-21.772047 9.8196135 -31.505548 4278255488
-21.778845 9.7262287 -31.528383 4278255488
-21.785643 9.6328192 -31.551222 4278255488
-21.792442 9.5393829 -31.574068 4278255488
-21.799244 9.4459219 -31.596922 4278255488
-21.806047 9.3524351 -31.619783 4278255488
-21.812853 9.2589216 -31.642649 4278255488
-21.719217 9.2662735 -31.570257 4278255488
-21.81966 9.1653843 -31.665522 4278255488
-21.726011 9.1727448 -31.593119 4278255488
-21.732807 9.0791912 -31.615984 4278255488
-21.739605 8.9856119 -31.638857 4278255488
-21.746405 8.8920078 -31.661737 4278255488
-21.753206 8.798377 -31.684622 4278255488
-21.76001 8.7047205 -31.707514 4278255488
-21.666311 8.7121315 -31.635065 4278255488
-21.673101 8.6184597 -31.657949 4278255488
-21.679895 8.5247631 -31.680841 4278255488
-21.686691 8.4310398 -31.703737 4278255488
-21.693489 8.3372908 -31.726645 4278255488
-21.599754 8.3447418 -31.654158 4278255488
-21.606541 8.2509775 -31.677057 4278255488
-21.613327 8.1571875 -31.699961 4278255488
-21.620117 8.0633717 -31.722872 4278255488
-21.626907 7.9695311 -31.74579 4278255488
-21.533138 7.9770212 -31.673273 4278255488
-21.539917 7.8831644 -31.696184 4278255488
-21.5467 7.7892818 -31.719103 4278255488
-21.553482 7.6953735 -31.742025 4278255488
-21.45969 7.7028923 -31.669485 4278255488
-21.560266 7.6014395 -31.764956 4278255488
-21.466461 7.6089687 -31.692404 4278255488
-21.473236 7.5150194 -31.715326 4278255488
-21.480011 7.4210443 -31.738256 4278255488
-21.486788 7.3270426 -31.761194 4278255488
-21.39296 7.3346024 -31.68862 4278255488
-21.399725 7.2405853 -31.71155 4278255488
-21.406492 7.1465435 -31.734488 4278255488
-21.312656 7.1541214 -31.661901 4278255488
-21.319412 7.0600634 -31.684832 4278255488
-21.32617 6.9659796 -31.707769 4278255488
-21.33293 6.87187 -31.730715 4278255488
-21.239071 6.8794775 -31.658106 4278255488
-21.245819 6.7853527 -31.681044 4278255488
-21.252569 6.6912012 -31.703989 4278255488
-21.259319 6.5970249 -31.726938 4278255488
-21.16544 6.6046619 -31.654306 4278255488
-21.172178 6.5104694 -31.677252 4278255488
-21.178921 6.4162512 -31.700205 4278255488
-21.185663 6.3220072 -31.723162 4278255488
-21.091761 6.3296738 -31.650507 4278255488
-21.098494 6.2354145 -31.67346 4278255488
-21.105227 6.1411285 -31.696417 4278255488
-21.011316 6.1488142 -31.623755 4278255488
-21.018038 6.054513 -31.646704 4278255488
-21.024761 5.960186 -31.669664 4278255488
-20.930841 5.9678917 -31.596991 4278255488
-20.937553 5.8735485 -31.619944 4278255488
-20.944267 5.7791805 -31.6429 4278255488
-20.950983 5.6847858 -31.665865 4278255488
-20.85704 5.6925201 -31.593168 4278255488
-20.863745 5.5981102 -31.616129 4278255488
-20.870451 5.5036745 -31.639093 4278255488
-20.776501 5.5114288 -31.566389 4278255488
-20.783194 5.4169769 -31.589346 4278255488
-20.78989 5.3224993 -31.61231 4278255488
-20.69593 5.3302727 -31.539595 4278255488
-20.702614 5.2357788 -31.562555 4278255488
-20.709301 5.1412601 -31.58552 4278255488
-20.615334 5.1490526 -31.512796 4278255488
-20.622007 5.0545177 -31.535753 4278255488
-20.628683 4.9599571 -31.558722 4278255488
-20.54137 4.8731918 -31.508944 4278255488
-20.548037 4.7785902 -31.531912 4278255488
-20.454052 4.7864208 -31.459166 4278255488
-20.460707 4.691803 -31.482126 4278255488
-20.467361 4.5971589 -31.505091 4278255488
-20.47402 4.5024886 -31.528067 4278255488
-20.380013 4.5103498 -31.455297 4278255488
-20.38666 4.4156637 -31.478262 4278255488
-20.393307 4.3209519 -31.501238 4278255488
-20.299292 4.3288321 -31.428457 4278255488
-20.305927 4.2341046 -31.451426 4278255488
-20.211918 4.2419939 -31.378649 4278255488
-20.218542 4.1472507 -31.401609 4278255488
-20.225168 4.0524812 -31.424578 4278255488
-20.131149 4.06039 -31.351789 4278255488
-20.137764 3.9656053 -31.374754 4278255488
-20.144381 3.8707938 -31.397722 4278255488
-20.050352 3.8787222 -31.324923 4278255488
-20.056957 3.7838955 -31.347887 4278255488
-20.063562 3.6890426 -31.370855 4278255488
-19.969526 3.69699 -31.298044 4278255488
-19.976122 3.6021214 -31.321009 4278255488
-19.982718 3.5072269 -31.343977 4278255488
-19.888672 3.5151935 -31.271158 4278255488
-19.895256 3.4202833 -31.294123 4278255488
-19.801218 3.4282589 -31.221308 4278255488
-19.807791 3.333333 -31.244265 4278255488
-19.814363 3.2383809 -31.267229 4278255488
-19.720316 3.246376 -31.194403 4278255488
-19.726879 3.1514082 -31.21736 4278255488
-19.733442 3.0564141 -31.240324 4278255488
-19.639385 3.0644288 -31.167486 4278255488
-19.645939 2.969419 -31.190443 4278255488
-19.551888 2.9774427 -31.117609 4278255488
-19.652493 2.8743834 -31.213408 4278255488
-19.558428 2.8824172 -31.140562 4278255488
-19.56497 2.7873659 -31.163519 4278255488
-19.470909 2.7954087 -31.090673 4278255488
-19.47744 2.7003412 -31.113626 4278255488
-19.483973 2.605248 -31.136587 4278255488
-19.389904 2.6133103 -31.06373 4278255488
-19.396425 2.5182014 -31.086683 4278255488
-19.402948 2.4230657 -31.109644 4278255488
-19.30887 2.4311476 -31.036779 4278255488
-19.31538 2.3359966 -31.059732 4278255488
-19.221308 2.3440871 -30.986868 4278255488
-19.227806 2.2489204 -31.009813 4278255488
-19.234308 2.1537275 -31.032766 4278255488
-19.140226 2.1618376 -30.959894 4278255488
-19.146715 2.0666289 -30.982843 4278255488
-19.052639 2.074748 -30.909971 4278255488
-19.059116 1.9795237 -30.932913 4278255488
-19.065596 1.8842731 -30.955858 4278255488
-18.97151 1.8924117 -30.882978 4278255488
-18.977978 1.7971454 -30.90592 4278255488
-18.883898 1.8052931 -30.83304 4278255488
-18.890352 1.7100105 -30.855978 4278255488
-18.896809 1.6147022 -30.87892 4278255488
-18.802721 1.6228695 -30.806028 4278255488
-18.809166 1.5275455 -30.828966 4278255488
-18.715082 1.5357213 -30.756079 4278255488
-18.721516 1.4403815 -30.779009 4278255488
-18.727951 1.345015 -30.801943 4278255488
-18.63386 1.3532109 -30.729048 4278255488
-18.640282 1.2578287 -30.751978 4278255488
-18.552607 1.1706357 -30.702005 4278255488
-18.559019 1.0752115 -30.724936 4278255488
-18.464924 1.0834355 -30.652033 4278255488
-18.471325 0.9879961 -30.674955 4278255488
-18.477728 0.89252949 -30.697886 4278255488
-18.383625 0.90077353 -30.624971 4278255488
-18.390015 0.80529165 -30.647898 4278255488
-18.302296 0.71804667 -30.597902 4278255488
-18.308678 0.62252235 -30.620825 4278255488
-18.214569 0.63079476 -30.547903 4278255488
-18.220938 0.53525472 -30.570822 4278255488
-18.22731 0.43968844 -30.593748 4278255488
-18.133192 0.4479804 -30.520815 4278255488
-18.139553 0.3523984 -30.543734 4278255488
-18.045441 0.36069942 -30.4708 4278255488
-18.051788 0.26510143 -30.493715 4278255488
-18.058138 0.16947722 -30.516634 4278255488
-17.964018 0.17779779 -30.443693 4278255488
-17.970354 0.082157612 -30.466604 4278255488
-17.976694 -0.0135088 -30.489527 4278255488
-17.882565 -0.0051686801 -30.416574 4278255488
-17.888891 -0.10085082 -30.439489 4278255488
-17.794767 -0.09250164 -30.366537 4278255488
-17.801083 -0.18819976 -30.389444 4278255488
-17.706964 -0.17984152 -30.316496 4278255488
-17.713268 -0.27555537 -30.339399 4278255488
-17.619154 -0.26718831 -30.266455 4278255488
-17.625446 -0.3629179 -30.289351 4278255488
-17.531338 -0.35454178 -30.216406 4278255488
-17.631739 -0.45867419 -30.312254 4278255488
-17.537617 -0.45028734 -30.239298 4278255488
-17.543898 -0.54605913 -30.262194 4278255488
-17.449781 -0.53766346 -30.189238 4278255488
-17.355682 -0.52926922 -30.116297 4278255488
-17.261604 -0.52087688 -30.043375 4278255488
-17.456051 -0.63345122 -30.21213 4278255488
-17.361938 -0.62504625 -30.139177 4278255488
-15.870769 -0.68208838 -29.019293 4278255488
-16.064539 -0.79459596 -29.187521 4278255488
-15.970666 -0.78618431 -29.114752 4278255488
-15.876812 -0.7777741 -29.041994 4278255488
-15.782976 -0.76936579 -28.969252 4278255488
-15.689159 -0.76095891 -28.896521 4278255488
-15.976725 -0.88190722 -29.137468 4278255488
-15.882857 -0.87348652 -29.064699 4278255488
-15.789008 -0.86506724 -28.991945 4278255488
-15.695177 -0.85664988 -28.919203 4278255488
-15.701197 -0.95236731 -28.941889 4278255488
-15.607371 -0.94394088 -28.86915 4278255488
-15.613379 -1.039674 -28.891832 4278255488
-15.519559 -1.0312388 -28.819098 4278255488
-15.425756 -1.022805 -28.746374 4278255488
-15.525555 -1.1269877 -28.841772 4278255488
-15.431739 -1.1185431 -28.769037 4278255488
-15.337942 -1.1101005 -28.696318 4278255488
-15.343913 -1.2058547 -28.718973 4278255488
-15.250121 -1.197403 -28.646257 4278255488
-15.156348 -1.1889529 -28.573553 4278255488
-15.25608 -1.2931728 -28.668909 4278255488
-15.162292 -1.2847121 -28.596189 4278255488
-15.068524 -1.276253 -28.523489 4278255488
-15.074458 -1.3720281 -28.546122 4278255488
-14.980695 -1.3635601 -28.473425 4278255488
-14.986616 -1.4593508 -28.49605 4278255488
-14.892859 -1.4508739 -28.423353 4278255488
-14.799119 -1.4423985 -28.350672 4278255488
-14.898767 -1.5466803 -28.445974 4278255488
-14.805015 -1.5381944 -28.373278 4278255488
-14.71128 -1.5297101 -28.3006 4278255488
-14.717164 -1.6255218 -28.323202 4278255488
-14.623435 -1.6170285 -28.250525 4278255488
-14.629307 -1.7128559 -28.273119 4278255488
-14.535583 -1.7043536 -28.200441 4278255488
-14.541443 -1.8001969 -28.223032 4278255488
-14.447723 -1.7916856 -28.150358 4278255488
-14.354023 -1.7831759 -28.0777 4278255488
-14.359858 -1.8790243 -28.100271 4278255488
-14.266162 -1.8705057 -28.027613 4278255488
-14.271985 -1.9663699 -28.05018 4278255488
-14.178294 -1.9578422 -27.977522 4278255488
-14.184105 -2.0537221 -28.000082 4278255488
-14.09042 -2.0451856 -27.927431 4278255488
-13.996754 -2.0366509 -27.854792 4278255488
-14.096219 -2.1410813 -27.949984 4278255488
-14.002539 -2.1325357 -27.877333 4278255488
-13.908877 -2.123992 -27.804697 4278255488
-13.914651 -2.2198927 -27.827234 4278255488
-13.820994 -2.21134 -27.754599 4278255488
-13.826756 -2.3072565 -27.777128 4278255488
-13.733105 -2.2986946 -27.704496 4278255488
-13.738853 -2.3946271 -27.727018 4278255488
-13.645207 -2.3860562 -27.654387 4278255488
-13.650945 -2.4820044 -27.676905 4278255488
-13.557303 -2.4734244 -27.604277 4278255488
-13.563029 -2.5693884 -27.626787 4278255488
-13.469394 -2.5607996 -27.554163 4278255488
-13.475107 -2.6567793 -27.57667 4278255488
-13.381476 -2.6481814 -27.504045 4278255488
-13.387178 -2.7441771 -27.526545 4278255488
-13.293552 -2.7355702 -27.45392 4278255488
-13.299242 -2.8315816 -27.476416 4278255488
-13.205621 -2.8229656 -27.403795 4278255488
-13.112019 -2.8143516 -27.33119 4278255488
-13.211299 -2.918993 -27.426283 4278255488
-13.117683 -2.910368 -27.353666 4278255488
-13.123349 -3.0064111 -27.376146 4278255488
-13.029738 -2.9977772 -27.30353 4278255488
-13.035393 -3.0938361 -27.326006 4278255488
-12.941787 -3.0851932 -27.253393 4278255488
-12.8482 -3.0765519 -27.180796 4278255488
-12.94743 -3.1812677 -27.275862 4278255488
-12.853828 -3.1726158 -27.203253 4278255488
-12.760246 -3.1639657 -27.130655 4278255488
-12.859459 -3.2687063 -27.225714 4278255488
-12.765863 -3.2600453 -27.153105 4278255488
-12.672286 -3.2513862 -27.080511 4278255488
-12.771482 -3.3561518 -27.175562 4278255488
-12.677892 -3.3474817 -27.102957 4278255488
-12.584319 -3.3388135 -27.030363 4278255488
-12.683497 -3.443604 -27.125406 4278255488
-12.589912 -3.4349248 -27.052801 4278255488
-12.496346 -3.4262476 -26.980211 4278255488
-12.501926 -3.5223749 -27.002645 4278255488
-12.408365 -3.5136886 -26.930056 4278255488
-12.413934 -3.6098316 -26.952482 4278255488
-12.320377 -3.6011364 -26.879896 4278255488
-12.325934 -3.6972952 -26.902319 4278255488
-12.232383 -3.688591 -26.829733 4278255488
-12.237928 -3.7847657 -26.852148 4278255488
-12.144382 -3.7760522 -26.779566 4278255488
-12.149915 -3.8722429 -26.801977 4278255488
-12.056374 -3.8635204 -26.729395 4278255488
-12.061895 -3.9597268 -26.751799 4278255488
-11.968359 -3.9509954 -26.67922 4278255488
-11.973868 -4.0472178 -26.701616 4278255488
-11.880338 -4.0384774 -26.629042 4278255488
-11.885835 -4.1347151 -26.651434 4278255488
-11.792309 -4.1259661 -26.578859 4278255488
-11.797794 -4.2222199 -26.601244 4278255488
-11.704273 -4.2134614 -26.528673 4278255488
-11.610771 -4.2047048 -26.456118 4278255488
-11.709746 -4.309731 -26.55105 4278255488
-11.616231 -4.3009634 -26.478483 4278255488
-11.621693 -4.3972492 -26.500856 4278255488
-11.528182 -4.3884726 -26.428289 4278255488
-11.533631 -4.4847741 -26.450655 4278255488
-11.440125 -4.4759884 -26.378092 4278255488
-11.445563 -4.5723057 -26.40045 4278255488
-11.352063 -4.5635114 -26.327887 4278255488
-11.357489 -4.6598444 -26.350241 4278255488
-11.263993 -4.6510406 -26.277681 4278255488
-11.269406 -4.7473898 -26.300028 4278255488
-11.175917 -4.7385769 -26.227472 4278255488
-11.181318 -4.8349419 -26.249815 4278255488
-11.087832 -4.8261199 -26.177256 4278255488
-11.093223 -4.9225006 -26.199594 4278255488
-10.999743 -4.9136701 -26.127039 4278255488
-11.00512 -5.0100665 -26.14937 4278255488
-10.911645 -5.0012269 -26.076818 4278255488
-10.917011 -5.0976391 -26.099142 4278255488
-10.823542 -5.0887904 -26.026594 4278255488
-10.828896 -5.1852188 -26.04891 4278255488
-10.735431 -5.1763606 -25.976362 4278255488
-10.641984 -5.1675048 -25.90383 4278255488
-10.647312 -5.263938 -25.92613 4278255488
-10.553871 -5.2550731 -25.853598 4278255488
-10.559188 -5.351522 -25.875891 4278255488
-10.465752 -5.342648 -25.803362 4278255488
-10.471056 -5.4391131 -25.825651 4278255488
-10.377625 -5.4302297 -25.753122 4278255488
-10.284213 -5.4213486 -25.680613 4278255488
-10.289493 -5.5178185 -25.702883 4278255488
-10.196085 -5.5089278 -25.630373 4278255488
-10.201352 -5.6054139 -25.652636 4278255488
-10.10795 -5.5965142 -25.580126 4278255488
-10.113205 -5.6930165 -25.602385 4278255488
-10.019808 -5.6841078 -25.529879 4278255488
-9.9264297 -5.6752009 -25.457388 4278255488
-9.9316597 -5.771708 -25.479624 4278255488
-9.8382864 -5.7627921 -25.407137 4278255488
-9.843504 -5.8593149 -25.429369 4278255488
-9.7501354 -5.85039 -25.356882 4278255488
-9.7553415 -5.9469285 -25.379107 4278255488
-9.6619787 -5.9379945 -25.306623 4278255488
-9.568634 -5.9290624 -25.234156 4278255488
-9.5738144 -6.0256062 -25.256361 4278255488
-9.4804745 -6.0166645 -25.183893 4278255488
-9.3871536 -6.0077252 -25.111441 4278255488
-9.4856434 -6.1132245 -25.206095 4278255488
-9.3923092 -6.1042738 -25.133631 4278255488
-9.2989931 -6.0953255 -25.061178 4278255488
-9.3041363 -6.1918902 -25.083361 4278255488
-9.210825 -6.1829324 -25.010912 4278255488
-9.1175337 -6.1739769 -24.938478 4278255488
-9.1226511 -6.2705464 -24.960642 4278255488
-9.0293636 -6.2615814 -24.888212 4278255488
-9.0344696 -6.3581672 -24.910372 4278255488
-8.9411879 -6.3491931 -24.837938 4278255488
-8.8479233 -6.3402214 -24.765524 4278255488
-8.8530045 -6.4368119 -24.787664 4278255488
-8.7597466 -6.4278307 -24.71525 4278255488
-8.7648144 -6.524437 -24.737387 4278255488
-8.6715603 -6.5154467 -24.664972 4278255488
-8.5783272 -6.5064583 -24.592577 4278255488
-8.5833702 -6.6030698 -24.614695 4278255488
-8.490139 -6.5940723 -24.542295 4278255488
-8.4951706 -6.6907001 -24.564409 4278255488
-8.401947 -6.6816936 -24.492014 4278255488
-8.3087406 -6.6726885 -24.419638 4278255488
-8.3137455 -6.769321 -24.441729 4278255488
-8.2205448 -6.7603073 -24.369352 4278255488
-8.1273632 -6.7512951 -24.296991 4278255488
-8.1323433 -6.8479328 -24.319063 4278255488
-8.0391655 -6.8389115 -24.246702 4278255488
-7.9460063 -6.8298922 -24.174356 4278255488
-7.9509616 -6.9265347 -24.196413 4278255488
-7.8578086 -6.9175067 -24.124071 4278255488
-7.7646728 -6.9084802 -24.051741 4278255488
-7.7696033 -7.0051274 -24.073778 4278255488
-7.6764731 -6.9960918 -24.001451 4278255488
-7.5833621 -6.9870582 -23.92914 4278255488
-7.5882659 -7.0837107 -23.951159 4278255488
-7.4951587 -7.0746679 -23.878847 4278255488
-7.4020724 -7.0656271 -23.806555 4278255488
-7.4069495 -7.1622844 -23.82855 4278255488
-7.3138671 -7.1532345 -23.756258 4278255488
-7.2208037 -7.144186 -23.683981 4278255488
-7.225656 -7.2408485 -23.705961 4278255488
-7.1325984 -7.2317915 -23.633684 4278255488
-7.0395579 -7.2227359 -23.561422 4278255488
-7.0443854 -7.3194032 -23.583387 4278255488
-6.9513507 -7.310339 -23.511126 4278255488
-6.9561667 -7.4070225 -23.533083 4278255488
-6.8631358 -7.3979487 -23.460825 4278255488
-6.770124 -7.3888769 -23.388582 4278255488
-6.7749152 -7.4855652 -23.410521 4278255488
-6.6819072 -7.4764843 -23.338278 4278255488
-6.5889201 -7.4674053 -23.26605 4278255488
-6.686687 -7.5731888 -23.360212 4278255488
-6.5936847 -7.5640988 -23.287973 4278255488
-6.5007014 -7.5550108 -23.215746 4278255488
-6.5054545 -7.65172 -23.237661 4278255488
-6.412477 -7.6426229 -23.165438 4278255488
-6.4172187 -7.7393484 -23.187349 4278255488
-6.3242469 -7.7302423 -23.115129 4278255488
-6.2312922 -7.7211375 -23.042921 4278255488
-6.3289752 -7.8269835 -23.13703 4278255488
-6.2360072 -7.8178678 -23.06481 4278255488
-6.1430583 -7.8087544 -22.992609 4278255488
-6.2407241 -7.9146252 -23.08671 4278255488
-6.1477618 -7.9055004 -23.01449 4278255488
-6.0548186 -7.896378 -22.942289 4278255488
-6.0595107 -7.9931402 -22.96417 4278255488
-5.9665713 -7.9840088 -22.89197 4278255488
-5.971252 -8.0807867 -22.913843 4278255488
-5.8783183 -8.0716457 -22.841642 4278255488
-5.8829856 -8.1684399 -22.863508 4278255488
-5.7900577 -8.1592903 -22.791315 4278255488
-5.7947116 -8.2560997 -22.813173 4278255488
-5.7017894 -8.2469416 -22.74098 4278255488
-5.7064338 -8.3437672 -22.762835 4278255488
-5.6135154 -8.3345985 -22.690645 4278255488
-5.6181464 -8.4314404 -22.712492 4278255488
-5.5252337 -8.4222631 -22.640303 4278255488
-5.5298533 -8.5191212 -22.662146 4278255488
-5.4369445 -8.5099344 -22.589956 4278255488
-5.4415526 -8.6068077 -22.611792 4278255488
-5.3486495 -8.5976133 -22.53961 4278255488
-5.4461608 -8.7037077 -22.633635 4278255488
-5.3532462 -8.6945019 -22.561438 4278255488
-5.2603488 -8.685298 -22.489256 4278255488
-5.2649322 -8.7822027 -22.51108 4278255488
-5.1720386 -8.7729902 -22.438898 4278255488
-5.1766105 -8.8699112 -22.460718 4278255488
-5.0837226 -8.8606892 -22.388536 4278255488
-5.0882831 -8.9576254 -22.410349 4278255488
-4.9954009 -8.9483948 -22.338175 4278255488
-5.0928435 -9.0545893 -22.432169 4278255488
-4.999948 -9.0453472 -22.35998 4278255488
-4.9070716 -9.0361071 -22.287806 4278255488
-5.0044971 -9.1423264 -22.381792 4278255488
-4.9116073 -9.1330757 -22.309607 4278255488
-4.8187346 -9.123826 -22.237432 4278255488
-4.9161429 -9.2300711 -22.331411 4278255488
-4.8232589 -9.2208109 -22.259226 4278255488
-4.8277831 -9.3178215 -22.281027 4278255488
-4.7349029 -9.3085527 -22.208845 4278255488
-4.6420417 -9.2992849 -22.136679 4278255488
-4.7394156 -9.4055796 -22.230639 4278255488
-4.6465411 -9.3963013 -22.158457 4278255488
-4.5536838 -9.3870249 -22.08629 4278255488
-4.6510406 -9.4933443 -22.180243 4278255488
-4.5581717 -9.4840565 -22.108068 4278255488
-4.4653201 -9.4747715 -22.035906 4278255488
-4.4697948 -9.5718193 -22.057673 4278255488
-4.3769488 -9.5625248 -21.98551 4278255488
-4.381412 -9.6595888 -22.007273 4278255488
-4.2885718 -9.6502848 -21.935118 4278255488
-4.2930236 -9.747365 -21.956873 4278255488
-4.2001872 -9.7380514 -21.884718 4278255488
-4.2046256 -9.8351479 -21.906466 4278255488
-4.1117949 -9.8258257 -21.834311 4278255488
-4.0189834 -9.8165054 -21.762175 4278255488
-4.023397 -9.9136066 -21.783903 4278255488
-3.9305913 -9.9042768 -21.711767 4278255488
-3.9349916 -10.001394 -21.733492 4278255488
-3.8421915 -9.9920559 -21.66136 4278255488
-3.8465803 -10.089189 -21.683077 4278255488
-3.7537839 -10.079841 -21.610945 4278255488
-3.7581613 -10.17699 -21.632658 4278255488
-3.6653707 -10.167633 -21.56053 4278255488
-3.6697347 -10.264798 -21.582235 4278255488
-3.5769498 -10.255432 -21.510107 4278255488
-3.5813024 -10.352612 -21.531809 4278255488
-3.4885213 -10.343238 -21.459681 4278255488
-3.3957593 -10.333865 -21.387568 4278255488
-3.4928625 -10.440434 -21.481375 4278255488
-3.4000871 -10.431051 -21.40925 4278255488
-3.3073289 -10.421669 -21.337141 4278255488
-3.4044168 -10.528263 -21.430941 4278255488
-3.3116453 -10.51887 -21.35882 4278255488
-3.2188928 -10.50948 -21.286711 4278255488
-3.3159635 -10.616098 -21.380503 4278255488
-3.2231977 -10.606697 -21.308382 4278255488
-3.2275026 -10.703941 -21.330057 4278255488
-3.1347425 -10.69453 -21.25794 4278255488
-3.0419996 -10.685121 -21.185839 4278255488
-3.1390359 -10.79179 -21.279612 4278255488
-3.0462797 -10.78237 -21.207495 4278255488
-2.9535425 -10.772952 -21.135393 4278255488
-3.0505617 -10.879646 -21.229162 4278255488
-2.9578111 -10.870217 -21.157049 4278255488
-2.8650796 -10.860789 -21.084948 4278255488
-2.9620798 -10.967509 -21.178705 4278255488
-2.8693349 -10.958071 -21.106596 4278255488
-2.7766092 -10.948634 -21.034498 4278255488
-2.8735921 -11.055379 -21.128248 4278255488
-2.780853 -11.045932 -21.056139 4278255488
-2.6881311 -11.036486 -20.984045 4278255488
-2.7850969 -11.143255 -21.077784 4278255488
-2.6923635 -11.133799 -21.005678 4278255488
-2.6965959 -11.231139 -21.027319 4278255488
-2.6038663 -11.221673 -20.955214 4278255488
-2.6080873 -11.319029 -20.976847 4278255488
-2.6123083 -11.416411 -20.998487 4278255488
-2.5195711 -11.406926 -20.926371 4278255488
-2.5237806 -11.504325 -20.948004 4278255488
-2.4310491 -11.49483 -20.875895 4278255488
-2.4352472 -11.592245 -20.89752 4278255488
-2.4394453 -11.689687 -20.919153 4278255488
-2.3467042 -11.680172 -20.847033 4278255488
-2.3508928 -11.77763 -20.868662 4278255488
-2.2581575 -11.768106 -20.796541 4278255488
-2.2623308 -11.865579 -20.818159 4278255488
-2.2665079 -11.963079 -20.839788 4278255488
-2.1737649 -11.953536 -20.76766 4278255488
-2.1779287 -12.051052 -20.789282 4278255488
-2.1820924 -12.148596 -20.810907 4278255488
-2.0893419 -12.139031 -20.738768 4278255488
-2.0934942 -12.236591 -20.760389 4278255488
-2.0007474 -12.227017 -20.68825 4278255488
-2.0048883 -12.324594 -20.709864 4278255488
-2.0090311 -12.422196 -20.731485 4278255488
-1.9162767 -12.412602 -20.659338 4278255488
-1.9204061 -12.510221 -20.680952 4278255488
-1.9245374 -12.607867 -20.702574 4278255488
-1.8317754 -12.598253 -20.630415 4278255488
-1.8358934 -12.695915 -20.652029 4278255488
-1.7431371 -12.686292 -20.579874 4278255488
-1.7472436 -12.78397 -20.601484 4278255488
-1.7513502 -12.881675 -20.623098 4278255488
-1.6585863 -12.872031 -20.550932 4278255488
-1.6626813 -12.969752 -20.572542 4278255488
-1.5699213 -12.9601 -20.50038 4278255488
-1.5740049 -13.057837 -20.521978 4278255488
-1.5780904 -13.155602 -20.543589 4278255488
-1.4853227 -13.145928 -20.471415 4278255488
-1.4893949 -13.243709 -20.493017 4278255488
-1.396631 -13.234027 -20.420847 4278255488
-1.4006917 -13.331823 -20.442442 4278255488
-1.4047525 -13.429646 -20.464045 4278255488
-1.3119829 -13.419945 -20.391863 4278255488
-1.3160322 -13.517783 -20.413458 4278255488
-1.2232664 -13.508073 -20.34128 4278255488
-1.2273042 -13.605927 -20.362871 4278255488
-1.2313421 -13.70381 -20.384462 4278255488
-1.1385686 -13.694078 -20.312277 4278255488
-1.1425951 -13.791977 -20.333864 4278255488
-1.0498254 -13.782237 -20.261679 4278255488
-1.0538404 -13.880151 -20.283262 4278255488
-0.9610765 -13.870401 -20.211077 4278255488
-0.96507812 -13.968332 -20.232653 4278255488
-0.87232184 -13.958573 -20.160475 4278255488
-0.87631011 -14.05652 -20.182043 4278255488
-0.78355765 -14.046752 -20.109865 4278255488
-0.78753638 -14.144714 -20.13143 4278255488
-0.69478774 -14.134937 -20.059252 4278255488
-0.79151511 -14.242704 -20.152998 4278255488
-0.69875312 -14.232916 -20.080809 4278255488
-0.60601211 -14.22313 -20.008635 4278255488
-0.7027204 -14.330922 -20.102373 4278255488
-0.60996413 -14.321125 -20.030188 4278255488
-0.61391807 -14.419147 -20.051744 4278255488
-0.52116942 -14.40934 -19.979559 4278255488
-0.42843604 -14.399535 -19.907389 4278255488
-0.52511001 -14.507378 -20.001112 4278255488
-0.43236518 -14.497562 -19.928926 4278255488
-0.33963943 -14.487748 -19.85676 4278255488
-0.34355521 -14.585792 -19.878294 4278255488
-0.25083518 -14.575969 -19.806128 4278255488
-0.25473952 -14.674027 -19.827654 4278255488
-0.16202331 -14.664195 -19.755491 4278255488
-0.1659143 -14.76227 -19.77701 4278255488
-0.073203802 -14.752429 -19.704851 4278255488
-0.077085257 -14.85052 -19.726366 4278255488
0.015621425 -14.84067 -19.654207 4278255488
0.011753322 -14.938777 -19.675714 4278255488
0.10445428 -14.928917 -19.603556 4278255488
0.0078833112 -15.036911 -19.697229 4278255488
0.10059762 -15.02704 -19.625059 4278255488
0.19329286 -15.017172 -19.552904 4278255488
0.18944955 -15.115312 -19.5744 4278255488
0.28213906 -15.105433 -19.502249 4278255488
0.2783072 -15.203588 -19.523741 4278255488
0.3709929 -15.193702 -19.45159 4278255488
0.36717248 -15.291873 -19.473074 4278255488
0.45985246 -15.281977 -19.400923 4278255488
0.45604539 -15.380164 -19.422403 4278255488
0.54871964 -15.370258 -19.350256 4278255488
0.54492402 -15.468462 -19.371729 4278255488
0.63759446 -15.458548 -19.299582 4278255488
0.63381028 -15.556767 -19.321051 4278255488
0.726475 -15.546844 -19.248907 4278255488
0.81912065 -15.536922 -19.176779 4278255488
0.72270417 -15.64508 -19.270369 4278255488
0.81536317 -15.635146 -19.198229 4278255488
0.90800309 -15.625215 -19.126101 4278255488
0.81160378 -15.733398 -19.219679 4278255488
0.90425706 -15.723455 -19.147543 4278255488
0.99689317 -15.713515 -19.075418 4278255488
0.99315858 -15.811772 -19.096857 4278255488
0.9894259 -15.910057 -19.118296 4278255488
1.0820677 -15.900096 -19.046164 4278255488
1.1746924 -15.890137 -18.974047 4278255488
1.1709845 -15.988426 -18.995466 4278255488
1.2636034 -15.978458 -18.923349 4278255488
1.259907 -16.076763 -18.944765 4278255488
1.3525202 -16.066788 -18.872652 4278255488
1.3488371 -16.165108 -18.894064 4278255488
1.4414446 -16.155123 -18.821951 4278255488
1.437773 -16.25346 -18.843355 4278255488
1.5303767 -16.243464 -18.771246 4278255488
1.5267165 -16.341818 -18.792643 4278255488
1.6193144 -16.331812 -18.720537 4278255488
1.6156676 -16.430182 -18.741926 4278255488
1.7082598 -16.420168 -18.669825 4278255488
1.7046244 -16.518555 -18.69121 4278255488
1.7972128 -16.508532 -18.619104 4278255488
1.8897822 -16.49851 -18.547018 4278255488
1.7935889 -16.606934 -18.640486 4278255488
1.8861716 -16.596901 -18.568384 4278255488
1.882561 -16.695318 -18.589758 4278255488
1.9751379 -16.685276 -18.517656 4278255488
1.9715388 -16.78371 -18.539026 4278255488
1.9679396 -16.882174 -18.560396 4278255488
2.0605242 -16.87211 -18.488291 4278255488
2.0569365 -16.970589 -18.509657 4278255488
2.1495173 -16.960518 -18.437548 4278255488
2.145941 -17.059011 -18.45891 4278255488
2.1423647 -17.157532 -18.480276 4278255488
2.2349532 -17.14744 -18.408159 4278255488
2.2313883 -17.245977 -18.429518 4278255488
2.323971 -17.235876 -18.357405 4278255488
2.3204195 -17.334431 -18.378759 4278255488
2.4129965 -17.32432 -18.306646 4278255488
2.3168662 -17.43301 -18.400118 4278255488
2.4094565 -17.42289 -18.327997 4278255488
2.4059165 -17.521486 -18.349348 4278255488
2.4985011 -17.511356 -18.277227 4278255488
2.4949725 -17.609968 -18.298574 4278255488
2.4914439 -17.708609 -18.319925 4278255488
2.5840361 -17.698458 -18.247797 4278255488
2.580519 -17.797115 -18.269144 4278255488
2.6731074 -17.786955 -18.197016 4278255488
2.6696036 -17.885628 -18.218355 4278255488
2.7621863 -17.875458 -18.146227 4278255488
2.758692 -17.974148 -18.167562 4278255488
2.7551997 -18.072863 -18.188902 4278255488
2.84779 -18.062674 -18.116766 4278255488
2.8443091 -18.161406 -18.138098 4278255488
2.9368937 -18.151207 -18.065966 4278255488
2.9334242 -18.249956 -18.087294 4278255488
3.026005 -18.239746 -18.015162 4278255488
2.9299548 -18.348732 -18.108625 4278255488
3.022547 -18.338512 -18.036482 4278255488
3.019089 -18.437304 -18.05781 4278255488
3.1116774 -18.427074 -17.98567 4278255488
3.1082327 -18.525885 -18.00699 4278255488
3.2008154 -18.515646 -17.934851 4278255488
3.1047862 -18.62472 -18.028315 4278255488
3.1973822 -18.61447 -17.956163 4278255488
3.1939471 -18.713322 -17.977488 4278255488
3.2865374 -18.703064 -17.905336 4278255488
3.2831156 -18.801931 -17.926653 4278255488
3.2796919 -18.900827 -17.947973 4278255488
3.3722918 -18.890549 -17.875811 4278255488
3.3688815 -18.98946 -17.897127 4278255488
3.4614737 -18.979172 -17.824968 4278255488
3.4580748 -19.0781 -17.846277 4278255488
3.4546759 -19.177057 -17.86759 4278255488
3.5472777 -19.166748 -17.795424 4278255488
3.5438902 -19.265718 -17.816732 4278255488
3.5405028 -19.364719 -17.838045 4278255488
3.6331122 -19.354389 -17.765867 4278255488
3.6297362 -19.453405 -17.787176 4278255488
3.6263583 -19.552448 -17.808489 4278255488
3.7189753 -19.542097 -17.736303 4278255488
3.7156107 -19.641157 -17.757612 4278255488
3.7122462 -19.740244 -17.778925 4278255488
3.8048708 -19.729874 -17.706728 4278255488
3.8015177 -19.828978 -17.728033 4278255488
3.8941386 -19.818596 -17.65584 4278255488
3.8907969 -19.917715 -17.677141 4278255488
3.8874552 -20.016863 -17.698446 4278255488
3.9800837 -20.006462 -17.626242 4278255488
3.9767535 -20.105625 -17.647543 4278255488
4.0693765 -20.095215 -17.575338 4278255488
4.0660596 -20.194395 -17.596632 4278255488
4.0627408 -20.293602 -17.617933 4278255488
4.1553712 -20.283173 -17.545721 4278255488
4.1520658 -20.382395 -17.567015 4278255488
4.2446904 -20.371956 -17.494806 4278255488
4.2413983 -20.471195 -17.516092 4278255488
4.3340173 -20.460745 -17.443884 4278255488
4.3307366 -20.560001 -17.465166 4278255488
4.4233499 -20.549543 -17.392962 4278255488
4.4200826 -20.648815 -17.414236 4278255488
4.512692 -20.638348 -17.342031 4278255488
4.5094342 -20.737637 -17.363302 4278255488
4.6020379 -20.72716 -17.291101 4278255488
4.5987935 -20.826464 -17.312365 4278255488
4.6913934 -20.815977 -17.240164 4278255488
4.6881604 -20.915298 -17.261419 4278255488
4.7807546 -20.904802 -17.189222 4278255488
4.777535 -21.004139 -17.210474 4278255488
4.8701234 -20.993635 -17.138281 4278255488
4.8669152 -21.092989 -17.159525 4278255488
4.9594979 -21.082474 -17.087332 4278255488
5.0520616 -21.07196 -17.015154 4278255488
5.0488801 -21.17132 -17.036379 4278255488
5.1414399 -21.160799 -16.964205 4278255488
5.1382699 -21.260174 -16.985422 4278255488
5.230824 -21.249641 -16.913248 4278255488
5.2276654 -21.349033 -16.934462 4278255488
5.2245088 -21.448452 -16.955683 4278255488
5.3170705 -21.437901 -16.883497 4278255488
5.4096131 -21.427351 -16.811331 4278255488
5.3139234 -21.537334 -16.904711 4278255488
5.4064794 -21.526773 -16.832529 4278255488
5.4990182 -21.516216 -16.760363 4278255488
5.4033475 -21.626226 -16.853735 4278255488
5.4958978 -21.615656 -16.781557 4278255488
5.4927773 -21.715122 -16.802759 4278255488
5.5853219 -21.704544 -16.730581 4278255488
5.6747537 -21.793438 -16.679602 4278255488
5.7672753 -21.782852 -16.607443 4278255488
5.7641931 -21.882339 -16.628618 4278255488
5.856709 -21.871744 -16.556459 4278255488
5.8536382 -21.971249 -16.577631 4278255488
5.9461484 -21.960644 -16.505476 4278255488
6.0386415 -21.950041 -16.433336 4278255488
6.0355954 -22.049551 -16.454485 4278255488
6.1280828 -22.038939 -16.382349 4278255488
6.0325494 -22.149088 -16.475641 4278255488
6.1250501 -22.138464 -16.40349 4278255488
6.1220174 -22.238018 -16.424639 4278255488
6.2145123 -22.227385 -16.352491 4278255488
6.2114911 -22.326954 -16.373636 4278255488
6.3039804 -22.316313 -16.301493 4278255488
6.3964505 -22.305672 -16.229361 4278255488
6.393456 -22.405247 -16.250486 4278255488
6.4859204 -22.394596 -16.178358 4278255488
6.4829373 -22.494188 -16.199476 4278255488
6.575398 -22.483528 -16.127348 4278255488
6.6678395 -22.472872 -16.055239 4278255488
6.5724263 -22.583138 -16.148462 4278255488
6.6648831 -22.572468 -16.076338 4278255488
6.757319 -22.561802 -16.004229 4278255488
6.754374 -22.661415 -16.02532 4278255488
6.8468041 -22.650738 -15.953215 4278255488
6.8438706 -22.750368 -15.974302 4278255488
6.9362969 -22.739683 -15.902197 4278255488
7.0287042 -22.729 -15.830107 4278255488
7.0257974 -22.828632 -15.851175 4278255488
7.1181989 -22.817942 -15.779089 4278255488
7.1153035 -22.917591 -15.80015 4278255488
7.2076993 -22.906889 -15.728064 4278255488
7.3000798 -22.896191 -15.655993 4278255488
7.3924375 -22.885492 -15.583937 4278255488
7.3895841 -22.985136 -15.604967 4278255488
7.4819379 -22.97443 -15.532911 4278255488
7.5742726 -22.963724 -15.460871 4278255488
7.5714421 -23.063374 -15.481886 4278255488
7.6637731 -23.05266 -15.409845 4278255488
7.7560849 -23.041948 -15.337824 4278255488
7.8455853 -23.13088 -15.286798 4278255488
7.9378743 -23.120161 -15.214788 4278255488
8.0301437 -23.109444 -15.142797 4278255488
8.0273781 -23.209091 -15.163759 4278255488
8.1196404 -23.198364 -15.091772 4278255488
8.2118874 -23.187641 -15.019793 4278255488
8.2091484 -23.287292 -15.040739 4278255488
8.3013878 -23.27656 -14.968767 4278255488
8.2986565 -23.376226 -14.98971 4278255488
8.390892 -23.365484 -14.917738 4278255488
8.4831123 -23.354744 -14.845778 4278255488
8.5753098 -23.344006 -14.773836 4278255488
8.5726204 -23.443666 -14.794744 4278255488
8.664814 -23.432919 -14.722803 4278255488
8.7569885 -23.422174 -14.650877 4278255488
8.7543221 -23.521839 -14.67177 4278255488
8.8464928 -23.511086 -14.599844 4278255488
8.8438377 -23.610767 -14.620733 4278255488
8.9360046 -23.600002 -14.548807 4278255488
9.0281487 -23.589241 -14.4769 4278255488
9.0255203 -23.688929 -14.49777 4278255488
9.1176605 -23.678156 -14.425863 4278255488
9.3018875 -23.65662 -14.282095 4278255488
9.20718 -23.76708 -14.374823 4278255488
9.2992973 -23.756302 -14.302935 4278255488
9.4834747 -23.734751 -14.159201 4278255488
9.5755386 -23.723978 -14.087353 4278255488
9.3888206 -23.845221 -14.25189 4278255488
9.4809113 -23.834436 -14.180017 4278255488
9.5729866 -23.823652 -14.10816 4278255488
9.6650429 -23.812872 -14.036318 4278255488
9.3862419 -23.944946 -14.272726 4278255488
9.5704384 -23.923353 -14.128971 4278255488
9.6625061 -23.912561 -14.057117 4278255488
9.383667 -24.044699 -14.293566 4278255488
-33.723381 31.962225 -32.220028 4278255488
-33.823586 31.869009 -32.313656 4278255488
-33.731251 31.87398 -32.242702 4278255488
-33.83147 31.780729 -32.336349 4278255488
-33.839355 31.692427 -32.359051 4278255488
-33.847244 31.604101 -32.381752 4278255488
-33.94754 31.510744 -32.475479 4278255488
-33.855133 31.515753 -32.404465 4278255488
-33.955444 31.422361 -32.498207 4278255488
-33.963352 31.333956 -32.520943 4278255488
-33.971264 31.245527 -32.543682 4278255488
-34.071648 31.152025 -32.637505 4278255488
-33.979176 31.157076 -32.566429 4278255488
-34.079575 31.06354 -32.660271 4278255488
-33.987087 31.068598 -32.589184 4278255488
-34.087505 30.975031 -32.683041 4278255488
-34.095436 30.886499 -32.705818 4278255488
-34.103371 30.797941 -32.728603 4278255488
-34.203865 30.704268 -32.822536 4278255488
-34.111305 30.70936 -32.751392 4278255488
-34.211815 30.615652 -32.845345 4278255488
-34.219769 30.527014 -32.86816 4278255488
-34.227726 30.438353 -32.89098 4278255488
-34.328312 30.344538 -32.985012 4278255488
-34.235683 30.349669 -32.913803 4278255488
-34.336285 30.255819 -33.007854 4278255488
-34.344257 30.167078 -33.030704 4278255488
-34.352234 30.078314 -33.053558 4278255488
-34.452915 29.984354 -33.14769 4278255488
-34.360214 29.989523 -33.07642 4278255488
-34.460907 29.895529 -33.17057 4278255488
-34.468906 29.806684 -33.193455 4278255488
-34.476906 29.717813 -33.216347 4278255488
-34.577675 29.623713 -33.310574 4278255488
-34.484905 29.62892 -33.239246 4278255488
-34.585693 29.534784 -33.333492 4278255488
-34.593712 29.445833 -33.356415 4278255488
-34.60173 29.356859 -33.379341 4278255488
-34.702595 29.262613 -33.473667 4278255488
-34.609753 29.267859 -33.402275 4278255488
-34.710632 29.173582 -33.49662 4278255488
-34.718674 29.084524 -33.519577 4278255488
-34.726715 28.995447 -33.542542 4278255488
-34.73476 28.906343 -33.565514 4278255488
-34.835732 28.811922 -33.659954 4278255488
-34.742809 28.817213 -33.58849 4278255488
-34.843796 28.722761 -33.682949 4278255488
-34.85186 28.633574 -33.705948 4278255488
-34.859928 28.544367 -33.728958 4278255488
-34.867996 28.455133 -33.751968 4278255488
-34.969074 28.360533 -33.846527 4278255488
-34.876064 28.365877 -33.77499 4278255488
-34.977161 28.271244 -33.869564 4278255488
-34.985252 28.181929 -33.892609 4278255488
-34.993343 28.09259 -33.915657 4278255488
-35.094517 27.997849 -34.010311 4278255488
-35.001434 28.003229 -33.938717 4278255488
-35.102623 27.908453 -34.033386 4278255488
-35.110737 27.819033 -34.056469 4278255488
-35.118847 27.729588 -34.079556 4278255488
-35.126965 27.64012 -34.10265 4278255488
-35.228245 27.5452 -34.197418 4278255488
-35.135078 27.550627 -34.125748 4278255488
-35.236378 27.455673 -34.220535 4278255488
-35.244514 27.366123 -34.24366 4278255488
-35.252651 27.27655 -34.266788 4278255488
-35.354027 27.181484 -34.36166 4278255488
-35.260788 27.186951 -34.289928 4278255488
-35.362183 27.091852 -34.384815 4278255488
-35.268932 27.09733 -34.313068 4278255488
-35.370338 27.002197 -34.407974 4278255488
-35.378498 26.912518 -34.431141 4278255488
-35.386658 26.822813 -34.454315 4278255488
-35.488144 26.72757 -34.549301 4278255488
-35.394825 26.733084 -34.477493 4278255488
-35.496323 26.637806 -34.572498 4278255488
-35.402988 26.643332 -34.500679 4278255488
-35.504505 26.548019 -34.595699 4278255488
-35.512688 26.45821 -34.618912 4278255488
-35.520874 26.368374 -34.642128 4278255488
-35.622471 26.272951 -34.737228 4278255488
-35.529064 26.278515 -34.665352 4278255488
-35.630672 26.18306 -34.760471 4278255488
-35.537254 26.188633 -34.68858 4278255488
-35.638882 26.093142 -34.783718 4278255488
-35.647087 26.003201 -34.806973 4278255488
-35.6553 25.913235 -34.830231 4278255488
-35.663513 25.823244 -34.853497 4278255488
-35.765232 25.72761 -34.948734 4278255488
-35.671726 25.733231 -34.87677 4278255488
-35.773464 25.63756 -34.972027 4278255488
-35.781696 25.547487 -34.995323 4278255488
-35.789928 25.457392 -35.018623 4278255488
-35.798168 25.36727 -35.041935 4278255488
-35.806408 25.277124 -35.06525 4278255488
-35.814648 25.186954 -35.088573 4278255488
-35.822891 25.09676 -35.1119 4278255488
-35.831139 25.00654 -35.135235 4278255488
-35.839386 24.916298 -35.158577 4278255488
-35.847637 24.826029 -35.181923 4278255488
-35.855888 24.735737 -35.20528 4278255488
-35.864143 24.64542 -35.228638 4278255488
-35.770477 24.651157 -35.156528 4278255488
-35.778721 24.560825 -35.179882 4278255488
-35.786968 24.470469 -35.203243 4278255488
-35.693291 24.476223 -35.131123 4278255488
-35.701527 24.385853 -35.15448 4278255488
-35.709763 24.295456 -35.177841 4278255488
-35.616077 24.301228 -35.105709 4278255488
-35.624302 24.210817 -35.129066 4278255488
-35.530624 24.216599 -35.056938 4278255488
-35.63253 24.120384 -35.152428 4278255488
-35.538837 24.126173 -35.080288 4278255488
-35.547054 24.035723 -35.103645 4278255488
-35.453365 24.041521 -35.031506 4278255488
-35.461571 23.951057 -35.054859 4278255488
-35.367886 23.956863 -34.982723 4278255488
-35.37608 23.866385 -35.006065 4278255488
-35.282402 23.8722 -34.933933 4278255488
-35.384277 23.775881 -35.029419 4278255488
-35.290585 23.781706 -34.957272 4278255488
-35.196911 23.787529 -34.885139 4278255488
-35.298767 23.691187 -34.980618 4278255488
-35.205082 23.69702 -34.908474 4278255488
-35.111412 23.702852 -34.836342 4278255488
-35.213253 23.606485 -34.931812 4278255488
-35.119572 23.612328 -34.859673 4278255488
-35.025906 23.618168 -34.787544 4278255488
-35.127735 23.521778 -34.883003 4278255488
-35.034054 23.52763 -34.810863 4278255488
-34.940395 23.533478 -34.738739 4278255488
-35.042206 23.437065 -34.834194 4278255488
-34.948532 23.442924 -34.762054 4278255488
-34.854877 23.448782 -34.689934 4278255488
-34.863003 23.358213 -34.713242 4278255488
-34.769352 23.364079 -34.641121 4278255488
-34.777466 23.273495 -34.664425 4278255488
-34.683823 23.279369 -34.592304 4278255488
-34.691925 23.18877 -34.615604 4278255488
-34.598286 23.194653 -34.543488 4278255488
-34.606377 23.10404 -34.56678 4278255488
-34.512741 23.10993 -34.494663 4278255488
-34.520821 23.019302 -34.517952 4278255488
-34.427189 23.025202 -34.445839 4278255488
-34.435261 22.934559 -34.46912 4278255488
-34.341633 22.940466 -34.397007 4278255488
-34.349689 22.849808 -34.420284 4278255488
-34.256069 22.855724 -34.348175 4278255488
-34.264114 22.765051 -34.371445 4278255488
-34.170498 22.770977 -34.299335 4278255488
-34.178535 22.680288 -34.322601 4278255488
-34.084923 22.686222 -34.250496 4278255488
-34.092945 22.595518 -34.273754 4278255488
-33.99934 22.60146 -34.201653 4278255488
-34.007351 22.510742 -34.224903 4278255488
-33.91375 22.516693 -34.152802 4278255488
-33.921753 22.425959 -34.176048 4278255488
-33.828152 22.431919 -34.103951 4278255488
-33.836143 22.341169 -34.127193 4278255488
-33.74255 22.347137 -34.055096 4278255488
-33.75053 22.256374 -34.078331 4278255488
